-5.216993963229444864e-01 -5.097849676570971322e-01 -4.878853866229128089e-01 -4.626425035677557696e-01 -4.430400826026050787e-01 -4.341368290152193832e-01 -4.384958418524846357e-01 -4.511426270834609231e-01 -4.649160163619180941e-01 -4.804393209301376366e-01 -4.899127270463947137e-01 -4.787627392554753558e-01 -4.555284869127356195e-01 -4.423718923182884399e-01 -4.526001450959040717e-01 -4.702448073338545975e-01 -4.791038921098392245e-01 -4.894363660363083013e-01 -5.035631026913955921e-01 -5.000111949006873502e-01 -4.690303092236215998e-01 -4.336049390281850879e-01 -4.145889936541903853e-01 -4.081989519700006674e-01 -3.942932912811688562e-01 -3.772444423961373583e-01 -3.512500623788202270e-01 -3.049789507076591244e-01 -2.492808651830196454e-01 -2.068049834369195816e-01 -1.892900406878114394e-01 -1.768292982139616776e-01 -1.531391686717005485e-01 -1.249557394389070181e-01 -9.746022379402537184e-02 -6.591082731664603400e-02 -1.892180972533034217e-02 3.810491967270866059e-02 9.085589119409157033e-02 1.233938636052344107e-01 1.436491986889402439e-01 1.568656110622733413e-01 1.784546601339150329e-01 2.220868041546761873e-01 2.724874286669732304e-01 3.327696030831511220e-01 3.841106752914320022e-01 4.123792997779124336e-01 4.362379227230422374e-01 4.632898449132914487e-01 5.002970724151301063e-01 5.380724741342713946e-01 5.610595138957638062e-01 5.784083682584477693e-01 5.972403889764673623e-01 6.217752803123169913e-01 6.502267269984246534e-01 6.700712711874980965e-01 6.873400027587071026e-01 7.140070999975753896e-01 7.426438525022319714e-01 7.619554499480353238e-01 7.617658497002525175e-01 7.519033237612667842e-01 7.486714987522962161e-01 7.394172416403422821e-01 7.316236147830562642e-01 7.383028710545109785e-01 7.530301481768737482e-01 7.730570345458160908e-01 7.796776155710612999e-01 7.668705818279841768e-01 7.543722027856702983e-01 7.483970038423430893e-01 7.598305662437156993e-01 7.772900706457338549e-01 7.818835246846661535e-01 7.847530275177332371e-01 7.771359396575123757e-01 7.451958915705133579e-01 6.989395733116933185e-01 6.633759019204336083e-01 6.440776316082277297e-01 6.200695063019727726e-01 5.817255568780522745e-01 5.417695064466009347e-01 5.063352811858051750e-01 4.635266720609521607e-01 4.049969513792369691e-01 3.451765861031527716e-01 2.887855286799011489e-01 2.391812813513500557e-01 1.978579916491448321e-01 1.682084333026362399e-01 1.351200110588875458e-01 8.618038001434895345e-02 3.174522370708306174e-02 -1.724266217663666945e-02 -3.913662753627829977e-02 -3.908674653649726882e-02 -4.387332158551864730e-02 -6.114894529328998574e-02 -9.917641710017724432e-02 -1.432161750418188551e-01 -1.791797845811466117e-01 -2.161752806845724795e-01 -2.386291255022293389e-01 -2.390851723095729908e-01 -2.316916129892977738e-01 -2.273676294143715526e-01 -2.520762472560627576e-01 -3.046951691216578384e-01 -3.590430791341219785e-01 -4.022360393372578224e-01 -4.353873344125646083e-01
-5.412335627535445060e-01 -5.342101390699600660e-01 -5.237993078713715223e-01 -5.080821465555231953e-01 -4.886135403720682224e-01 -4.737033531650118867e-01 -4.646214979723445881e-01 -4.649623046895609013e-01 -4.748129173976522455e-01 -4.903392912981130447e-01 -5.047219917770431330e-01 -5.007911486544037727e-01 -4.832688986932882624e-01 -4.777253640746058072e-01 -4.990715732367183577e-01 -5.253664702615422621e-01 -5.374836747590417962e-01 -5.492961138684276934e-01 -5.639071723750600507e-01 -5.611019727420230030e-01 -5.312568472426760779e-01 -4.922329907262472104e-01 -4.607439931376903774e-01 -4.424069827267759214e-01 -4.244217572599826571e-01 -4.092820101845989211e-01 -3.919461624362509111e-01 -3.501261000798374101e-01 -2.885593687577187039e-01 -2.360496941152723793e-01 -2.065319480273389297e-01 -1.869106376687988402e-01 -1.625812897289223846e-01 -1.376129789173842488e-01 -1.175748910638815814e-01 -9.237859984191271190e-02 -4.815288083707384287e-02 1.173063393854825200e-02 7.619816064292675439e-02 1.201675729000745291e-01 1.449918342106140401e-01 1.587966955076367259e-01 1.764199762038262398e-01 2.170245543038497593e-01 2.689490402154951498e-01 3.330264489418039986e-01 3.905175008905470979e-01 4.235291770648360599e-01 4.484591297161517609e-01 4.763160756104497517e-01 5.145896882162022123e-01 5.531747152029169445e-01 5.767884107795461235e-01 5.950939380830282399e-01 6.148007802842619940e-01 6.389290943886563046e-01 6.655413709743699391e-01 6.799086163802838811e-01 6.868233843021488427e-01 7.034465931072558798e-01 7.250825188048849457e-01 7.416725186799856262e-01 7.449533000517863934e-01 7.398422865697312778e-01 7.389180034441935607e-01 7.286917949940834305e-01 7.152408638482451453e-01 7.166888360971963579e-01 7.298597993603886946e-01 7.488271856033976714e-01 7.555169256914924247e-01 7.430812507768126407e-01 7.298605534427662356e-01 7.256061553331680791e-01 7.419767899713287651e-01 7.633605647486311208e-01 7.689331482594354839e-01 7.648823144627895365e-01 7.422671214109590743e-01 7.005367898184333697e-01 6.543101210437555215e-01 6.235936322395749798e-01 6.129928059254911021e-01 5.969114978333597277e-01 5.642484411032474556e-01 5.277307637707709942e-01 4.927280201275688887e-01 4.513855596878162402e-01 3.972034171006825765e-01 3.411571376423591651e-01 2.865410223882537410e-01 2.363643009991112653e-01 1.928420720551669854e-01 1.669514347043886127e-01 1.447805039559151852e-01 1.025802697943658942e-01 4.667220446560406411e-02 -8.591942002432170766e-03 -4.047695666594611913e-02 -4.649348857856697853e-02 -5.084139175765554908e-02 -6.165167588581883101e-02 -8.916977631819382466e-02 -1.270001155266724524e-01 -1.623007131211803566e-01 -2.022080394098284828e-01 -2.306725974204120733e-01 -2.353447539374056985e-01 -2.290931419138279024e-01 -2.226922118489241820e-01 -2.417469870332172310e-01 -2.902479781789835123e-01 -3.437898312890868002e-01 -3.866239533313997612e-01 -4.206307219059605140e-01
-5.630442476973608334e-01 -5.540556143019501611e-01 -5.464733155598076042e-01 -5.390498902774267798e-01 -5.242423611922230053e-01 -5.122908330404422061e-01 -5.026692508129354531e-01 -4.954429892541076796e-01 -4.975339874753854086e-01 -5.038876997192702767e-01 -5.107852447772068816e-01 -5.107592412679589078e-01 -5.045471216832462247e-01 -5.124097760345602826e-01 -5.459404575852931929e-01 -5.779412251604630901e-01 -5.915547827593430341e-01 -6.009780876225030433e-01 -6.092249057272818291e-01 -6.044837887871714610e-01 -5.779439973951371323e-01 -5.415201076378887146e-01 -5.052130588987516768e-01 -4.749987435605925734e-01 -4.476072367075557557e-01 -4.283928551651909333e-01 -4.162938083850841187e-01 -3.800510144589067107e-01 -3.148350623323595832e-01 -2.515361701001078143e-01 -2.090276817040283008e-01 -1.867504188387900110e-01 -1.680937999556506024e-01 -1.508480265439736401e-01 -1.356704135281358026e-01 -1.104254356363105205e-01 -6.799774570991519440e-02 -1.144686306865289223e-02 5.562253891962365415e-02 1.112170527731397435e-01 1.487830519584294187e-01 1.719202083386636992e-01 1.887464973773065324e-01 2.236211208282872509e-01 2.754747612642882704e-01 3.366274041987776244e-01 3.886173870129174257e-01 4.206959155963089225e-01 4.485271291731152132e-01 4.821546136501251856e-01 5.244467539221905339e-01 5.597121797112561969e-01 5.784171981004772034e-01 5.964952008002033512e-01 6.208552550745369825e-01 6.466201858639816225e-01 6.687203016734999395e-01 6.772863038913196077e-01 6.799664589070938403e-01 6.934238839115248743e-01 7.095854366201758134e-01 7.211908077767369418e-01 7.249945294574151600e-01 7.254380397412895087e-01 7.300435671981413410e-01 7.255096968090817278e-01 7.091086326273324802e-01 6.985620307032337495e-01 7.019298238208570018e-01 7.141118497024807610e-01 7.254060673704759710e-01 7.238901607801957461e-01 7.151234936748891435e-01 7.112512244008426521e-01 7.250748966581104238e-01 7.462251436647092673e-01 7.550879044543818974e-01 7.439841636015813719e-01 7.031341580960348558e-01 6.512339669499825900e-01 6.087339373962079581e-01 5.813335025670094414e-01 5.724629917051000660e-01 5.617074679499620693e-01 5.393991350278054542e-01 5.166159105092015258e-01 4.914242657894637989e-01 4.528232443067761182e-01 4.007188809508311356e-01 3.480562866030122438e-01 2.961901235017515566e-01 2.439034445090875747e-01 1.929061959561866324e-01 1.611297145494780814e-01 1.456556306336383166e-01 1.162321921209474584e-01 6.682437065540436372e-02 1.049089630566286263e-02 -3.672248363217250899e-02 -5.871423647065555224e-02 -6.678932349225044640e-02 -6.859918588725190391e-02 -7.835074504232895920e-02 -1.075350158263264078e-01 -1.453867255250441692e-01 -1.859049596058025555e-01 -2.168027721273904918e-01 -2.299237298093688153e-01 -2.347181490923418989e-01 -2.383465262958810726e-01 -2.562362762858628185e-01 -2.950515059519664973e-01 -3.409663088582522983e-01 -3.758832483761646581e-01 -4.051816581392247985e-01
-5.885053848260844989e-01 -5.722384713767990627e-01 -5.561117575898341103e-01 -5.500295202973450870e-01 -5.416364625310156056e-01 -5.387754516509655200e-01 -5.385089556380635578e-01 -5.291426244164827430e-01 -5.219782572558975264e-01 -5.164298517025127655e-01 -5.154913578508472094e-01 -5.225795002727017247e-01 -5.314797976042100469e-01 -5.526852300343483293e-01 -5.900489407757104621e-01 -6.184012185956027086e-01 -6.303438790708124628e-01 -6.365171533399516246e-01 -6.398619494220937343e-01 -6.359374451316354149e-01 -6.141938138096236788e-01 -5.855997531048358073e-01 -5.555170894232007717e-01 -5.194874478076214608e-01 -4.801908955563054526e-01 -4.484409887467113998e-01 -4.273753438758554068e-01 -3.886968207110136353e-01 -3.225299462888794322e-01 -2.532441562147658143e-01 -2.037983555592119134e-01 -1.840150346187924002e-01 -1.722244500607656159e-01 -1.589570586591149970e-01 -1.369711208951437387e-01 -1.012105916217051482e-01 -5.913148042224366380e-02 -1.424978032691666743e-02 3.763593786363016863e-02 9.430097420023624000e-02 1.468724255118975808e-01 1.856026257307128724e-01 2.088117327047996075e-01 2.414236789640983316e-01 2.930424662314451423e-01 3.474205275574009377e-01 3.873294010875545368e-01 4.141473842263422855e-01 4.438019047174469045e-01 4.811295004926446905e-01 5.213745895631852756e-01 5.460179243925952219e-01 5.558988875664576668e-01 5.732020601364706813e-01 6.045330964768219628e-01 6.338592278878586450e-01 6.514508179923670372e-01 6.576399728610532458e-01 6.654680554831957640e-01 6.844397572913694106e-01 6.982434127296557325e-01 7.008369757973387237e-01 6.946133420044764417e-01 6.935789353482997299e-01 7.033351073230070805e-01 7.105671108268502012e-01 7.010443849068060951e-01 6.821806545912185715e-01 6.735355006851614368e-01 6.751858069181393418e-01 6.888745023831138736e-01 6.996523588673619898e-01 6.971450864420853932e-01 6.905329825975199398e-01 6.931208719424117870e-01 7.078300378155987227e-01 7.195741774821806658e-01 7.101260553589965330e-01 6.687537056400811863e-01 6.193925495376452206e-01 5.837398849451965743e-01 5.569095030391246759e-01 5.419928289775821639e-01 5.319148720307238509e-01 5.211182927261219788e-01 5.162697101978207526e-01 5.054621100729006500e-01 4.715435134917938531e-01 4.223689105029775348e-01 3.773315384132088779e-01 3.352558130163971195e-01 2.844872081358170157e-01 2.238873557753190691e-01 1.712482752911389516e-01 1.404843147416108273e-01 1.137525569148849919e-01 7.309217736966010237e-02 2.516916372839473129e-02 -2.575228553005750112e-02 -5.969417249192367908e-02 -7.339372648154279810e-02 -7.346465921942298138e-02 -7.693412231966066661e-02 -1.048367158622496853e-01 -1.467833709718570911e-01 -1.822663310419042615e-01 -2.063243910893262645e-01 -2.260141168519672894e-01 -2.466996505747688917e-01 -2.652303407594027718e-01 -2.826625920281449766e-01 -3.077849921007811407e-01 -3.414938184953406064e-01 -3.656936068461115186e-01 -3.895633899805321376e-01
-6.044912182595508776e-01 -5.858743144013008886e-01 -5.656068464645449545e-01 -5.603006619408890110e-01 -5.565149476435543585e-01 -5.579633737192963849e-01 -5.591141550778233604e-01 -5.451901330757057407e-01 -5.312174168190294532e-01 -5.215028952989205768e-01 -5.259782216867364690e-01 -5.459275660646925044e-01 -5.663618818776265940e-01 -5.946095062991877400e-01 -6.292294134149754026e-01 -6.505992590290078370e-01 -6.595168754689955115e-01 -6.651341271866129112e-01 -6.718897064162356880e-01 -6.737421075809442161e-01 -6.555217983604696430e-01 -6.307455987829891919e-01 -6.040544585161194968e-01 -5.642319563006347183e-01 -5.155662274972955261e-01 -4.715793744059914028e-01 -4.376993710347638622e-01 -3.938805926819021752e-01 -3.307294498991649179e-01 -2.635261829465418981e-01 -2.140629207271395051e-01 -1.941902774171710422e-01 -1.804104551501443665e-01 -1.611907460601047226e-01 -1.261737033612832792e-01 -7.954639827906462290e-02 -3.771307522349148789e-02 -2.814224927208553578e-03 3.318525168546085369e-02 8.458064825369955575e-02 1.450184433160970621e-01 1.943855966096755539e-01 2.262794870668136116e-01 2.629022269726528083e-01 3.159757385168857069e-01 3.674637726737344234e-01 4.022396186274062035e-01 4.252898324791381524e-01 4.520630488348674758e-01 4.839130912270968587e-01 5.123679358981506615e-01 5.238580216478794238e-01 5.271611440176959817e-01 5.445377052774962312e-01 5.809733037384835486e-01 6.140676591305677112e-01 6.313279672500540229e-01 6.393653400518021224e-01 6.541453339135404610e-01 6.797001961144082394e-01 6.943742881658894195e-01 6.898729846412454680e-01 6.708277779767219950e-01 6.622235453552385298e-01 6.718947257047762633e-01 6.857837591862198101e-01 6.851724056029698806e-01 6.676041665772318723e-01 6.553355080080977002e-01 6.515479994267375785e-01 6.622069006275475012e-01 6.749845849196707270e-01 6.744125777742436822e-01 6.646495326359501687e-01 6.581760886887306761e-01 6.655239605985115992e-01 6.752844411912900524e-01 6.714763046982518135e-01 6.434309470439544265e-01 6.049556444522319332e-01 5.742838007199433381e-01 5.478934236157325666e-01 5.290451640383936338e-01 5.183872054317392175e-01 5.134297715461377809e-01 5.170584510784529408e-01 5.133438414261225491e-01 4.852652147624418877e-01 4.440370244589787463e-01 4.120542604624998773e-01 3.856350199079214280e-01 3.423613691036810902e-01 2.775718253774799305e-01 2.053203955233613709e-01 1.495426790412274776e-01 1.117786997912097041e-01 7.196713306095640916e-02 3.192395421846567355e-02 -1.030810099631242378e-02 -4.328176086388068472e-02 -5.952598087667351767e-02 -6.530181180924118922e-02 -7.765271146255875445e-02 -1.114946337205789256e-01 -1.549434829521546819e-01 -1.852537543191175584e-01 -2.024392024838754245e-01 -2.246016458049312492e-01 -2.540552293806477291e-01 -2.764811508082751224e-01 -2.870629721882352881e-01 -2.996245900564575848e-01 -3.230036719046326943e-01 -3.396758723949028225e-01 -3.597678293573532970e-01
-6.073666094782005365e-01 -5.915852704502676529e-01 -5.762410182088242294e-01 -5.767150828423516229e-01 -5.774527717806779981e-01 -5.790295158235526651e-01 -5.730888325134588790e-01 -5.504940950184791237e-01 -5.314236050933819344e-01 -5.222524109691445426e-01 -5.379200418358078828e-01 -5.706978555948902798e-01 -5.972007526973761582e-01 -6.270547532441603789e-01 -6.566864895627710919e-01 -6.713630345486641948e-01 -6.770429761346855591e-01 -6.834532432573878769e-01 -6.979205471895765234e-01 -7.089068241224723010e-01 -6.953887520104246045e-01 -6.721143343432648409e-01 -6.431165890046844913e-01 -5.973925791516506711e-01 -5.413573320637943276e-01 -4.891492824385280103e-01 -4.489047123485477297e-01 -4.064263108514348244e-01 -3.518719343963856994e-01 -2.930705547003401024e-01 -2.460171799382164237e-01 -2.207455123812099018e-01 -1.978283077730092487e-01 -1.684348931193794530e-01 -1.236919557998735347e-01 -7.174252458102192698e-02 -2.972256150749442993e-02 2.552903086911045231e-03 3.381770583694668902e-02 8.248598380837410260e-02 1.449367464636667213e-01 1.989507207581787396e-01 2.385525162953200107e-01 2.822734430557747864e-01 3.379781689449107840e-01 3.895575873768273301e-01 4.240037244779685799e-01 4.442225812148637987e-01 4.649731510125287293e-01 4.864702254271855986e-01 5.010018535983582488e-01 5.028651058781840044e-01 5.038619144546804263e-01 5.220852328807885634e-01 5.600777083367806108e-01 5.956018135824544535e-01 6.161870787034163799e-01 6.296188881228860224e-01 6.510570504821582283e-01 6.813686466392502306e-01 6.983769272864913669e-01 6.920403355931556977e-01 6.670519351985665368e-01 6.523026313769471063e-01 6.578021255362583863e-01 6.703851251139110179e-01 6.728692429862879187e-01 6.590285322384176192e-01 6.485978534274500218e-01 6.451383240542261088e-01 6.536974764150331740e-01 6.644869549124911012e-01 6.632682180302663655e-01 6.510937637184143201e-01 6.386307061535779761e-01 6.384988660611367051e-01 6.421757127880867166e-01 6.412736304408245269e-01 6.258914818978643657e-01 5.970528732253604920e-01 5.685464649949147908e-01 5.425894591267631517e-01 5.230263380286244157e-01 5.118915120008254993e-01 5.075574460817439126e-01 5.114318582805769120e-01 5.083514106373772101e-01 4.861182010670614950e-01 4.557471272078704727e-01 4.370944015873091670e-01 4.247514719704389985e-01 3.909377130493336128e-01 3.283787471545006609e-01 2.470422118161709479e-01 1.733741823293923068e-01 1.225523579939918478e-01 7.844263067403207945e-02 4.217932594867002116e-02 1.040828288138999531e-02 -1.707161483118520978e-02 -3.471360419007191861e-02 -4.829283606009243668e-02 -7.278172881743395772e-02 -1.124958684794084979e-01 -1.548826975020835828e-01 -1.818513232517700029e-01 -1.954815344467658034e-01 -2.178772267546418284e-01 -2.491010873526976477e-01 -2.665458762994279973e-01 -2.663211796205229298e-01 -2.684884932884087916e-01 -2.839215268670192693e-01 -2.951045776332704706e-01 -3.117640824328529736e-01
-6.038070395326758932e-01 -5.914616700568933183e-01 -5.841124619739099799e-01 -5.933169432089752116e-01 -5.994631378717321102e-01 -6.018335858304733055e-01 -5.898047101508819834e-01 -5.596182332440307050e-01 -5.363562738099529881e-01 -5.251289270921671859e-01 -5.439249674604224039e-01 -5.834969881783328427e-01 -6.142975695240940892e-01 -6.443745216155636335e-01 -6.655239909699732781e-01 -6.692816559570669011e-01 -6.708597570831447143e-01 -6.766405383042580768e-01 -6.970936105474381250e-01 -7.201641432089338490e-01 -7.179432532443312809e-01 -7.025135427791777687e-01 -6.735056447903204901e-01 -6.210281433882882673e-01 -5.584192094860095379e-01 -4.984486938556972335e-01 -4.552278660978398284e-01 -4.235834483516053295e-01 -3.874700333137687802e-01 -3.471836448140807052e-01 -3.042696275299848208e-01 -2.635745928335728183e-01 -2.232390722611072298e-01 -1.831723893819350024e-01 -1.401532856973643770e-01 -9.274456367185879291e-02 -4.771511425692397113e-02 -5.349528083435173796e-03 3.695516312391902702e-02 8.512005505677011641e-02 1.412186377801545323e-01 1.944311627990508440e-01 2.448067093444495634e-01 2.999795794407134619e-01 3.565747103681801145e-01 4.044727978201136942e-01 4.330693441495015450e-01 4.454520156222978589e-01 4.569587760341132787e-01 4.654683925625665020e-01 4.716126863154010973e-01 4.775355083482661911e-01 4.868429753718621633e-01 5.067950997314394357e-01 5.362902573554574337e-01 5.689524669021477354e-01 5.993292613358144338e-01 6.299383652384393795e-01 6.641712005086318760e-01 6.930786848913071951e-01 7.052309982104550956e-01 7.006567759643869131e-01 6.850656397344924153e-01 6.721615889956796819e-01 6.670974604683911346e-01 6.675223602681189528e-01 6.644527576359552379e-01 6.525528690848637625e-01 6.440955984239400411e-01 6.460259650937065778e-01 6.632780053090380212e-01 6.795122114771214861e-01 6.786974406633766721e-01 6.634282863133204033e-01 6.404788357324961989e-01 6.265677049402191834e-01 6.198823796003496422e-01 6.193179843867933076e-01 6.154887230243030194e-01 5.939494183737121791e-01 5.631067367579918326e-01 5.315096419761847768e-01 5.088476084700964686e-01 4.993472321109535539e-01 4.964902451461147281e-01 5.010103978196508434e-01 4.994519827884689733e-01 4.848375443590151046e-01 4.672126669184373249e-01 4.547972185759329711e-01 4.420600507350049280e-01 4.120625511814324238e-01 3.584490822153045264e-01 2.812311950643862080e-01 2.012130038895305617e-01 1.393577702156018894e-01 8.862109398985025532e-02 5.525512575698909856e-02 3.408588484461475693e-02 1.024294785931765921e-02 -1.319995761765639826e-02 -3.807796017343979128e-02 -7.139076243552931744e-02 -1.099714031676306686e-01 -1.471437157745418278e-01 -1.685842568432531496e-01 -1.771259574804388837e-01 -1.957030603593254703e-01 -2.227076829740777253e-01 -2.337217920857955211e-01 -2.282210404574352980e-01 -2.257684104276846404e-01 -2.349438324764358266e-01 -2.405376075557028592e-01 -2.530301058897187483e-01
-6.142028650951693036e-01 -6.035176588940152076e-01 -5.996448293185701051e-01 -6.130840140354224532e-01 -6.226811457562302365e-01 -6.281055392232960388e-01 -6.192509694396232112e-01 -5.904389126799980403e-01 -5.659082730184245014e-01 -5.479612559410208528e-01 -5.532407069792336651e-01 -5.844249718972718277e-01 -6.147811041002186894e-01 -6.458552236225671983e-01 -6.651306390755356013e-01 -6.640072616610523948e-01 -6.632166249450643924e-01 -6.652608378990247928e-01 -6.822607420108267595e-01 -7.110468520053193631e-01 -7.216566896530499653e-01 -7.174226149901240523e-01 -6.908483212817875252e-01 -6.332556692083590733e-01 -5.664022377389900109e-01 -5.003053453876181722e-01 -4.550926284534471122e-01 -4.357592743833866300e-01 -4.188039136469178803e-01 -3.998842730306961246e-01 -3.651814246886136428e-01 -3.098692667079371854e-01 -2.518129002820414519e-01 -2.030446286465966699e-01 -1.674931242811485976e-01 -1.289777690850490155e-01 -7.997768512959811671e-02 -2.447247811321529715e-02 3.002994615603214387e-02 7.436808822726689860e-02 1.194827174781934453e-01 1.685587983238805432e-01 2.292465970869978220e-01 2.963263202066808155e-01 3.531937939935073101e-01 3.992533765552909175e-01 4.267520341445309451e-01 4.351732272287980874e-01 4.386782393385612600e-01 4.355661062948198992e-01 4.382465902267492219e-01 4.559716484852280871e-01 4.792959951529798812e-01 5.038602098053071021e-01 5.253495617577856880e-01 5.556753001425545069e-01 5.977048919997893783e-01 6.464291577063236982e-01 6.890147947777039983e-01 7.086977309005511039e-01 7.111872427870524760e-01 7.087882841008541490e-01 7.082250321893903688e-01 7.007153493053207560e-01 6.836152189364856913e-01 6.709538468815238188e-01 6.645040085543812980e-01 6.572651187524838345e-01 6.507385811393603392e-01 6.569751048161253104e-01 6.815569994210527449e-01 7.026069005957233937e-01 7.026064619983702908e-01 6.892873517409104922e-01 6.650793401286997364e-01 6.431916867518250314e-01 6.266621654823197884e-01 6.194846880521329702e-01 6.128795598591274540e-01 5.882135671997770210e-01 5.519327794627827410e-01 5.119013690498284141e-01 4.848497081009332521e-01 4.772730035261112946e-01 4.753565782584542876e-01 4.792787232563034405e-01 4.776704835810249294e-01 4.691284945215855595e-01 4.627953371487634193e-01 4.542687632486759886e-01 4.386696946238328176e-01 4.124432368006403227e-01 3.712397815711993010e-01 3.099688612460864134e-01 2.396950213719527545e-01 1.753169468433280476e-01 1.186523165450615730e-01 8.147276215024516766e-02 5.813106876202028817e-02 2.998575116346514566e-02 -2.220440616389530736e-04 -2.927798865153914687e-02 -5.591656393802637431e-02 -8.266010692326992981e-02 -1.132230613649017475e-01 -1.360774679348435712e-01 -1.517470234481569646e-01 -1.712246107312093701e-01 -1.910370530828733038e-01 -1.976630076319442209e-01 -1.947271538712728733e-01 -1.943469309776275078e-01 -2.000726681906603577e-01 -2.000783873703956273e-01 -2.069968180996542562e-01
-6.453377397856555620e-01 -6.338136655107468043e-01 -6.261985047997981058e-01 -6.365926042093419390e-01 -6.464342158872672384e-01 -6.551232571339431487e-01 -6.542244053676105064e-01 -6.320080692418656998e-01 -6.083667822561524829e-01 -5.847362819530088629e-01 -5.744985602192616003e-01 -5.916335583706318069e-01 -6.159950432367351514e-01 -6.454803490641958241e-01 -6.676222844780984600e-01 -6.689234032400245278e-01 -6.682226411231885210e-01 -6.669696641454169184e-01 -6.776985252183459485e-01 -7.064496231848023111e-01 -7.254632514665090293e-01 -7.299376746447890918e-01 -7.075577616380436252e-01 -6.496616488055714234e-01 -5.817918881574597467e-01 -5.122803911873119453e-01 -4.626549479527745090e-01 -4.450645494888222919e-01 -4.349720710399696544e-01 -4.263738260067539976e-01 -4.001939352206173028e-01 -3.434406898054511714e-01 -2.794170219694453450e-01 -2.262779527117824707e-01 -1.905723716922304301e-01 -1.530808258743218409e-01 -1.021796327355204981e-01 -4.496260334600284125e-02 5.376745305097310745e-03 4.087062118977424774e-02 8.004510275691090193e-02 1.272178494419559658e-01 1.926692152465945274e-01 2.661215902283672885e-01 3.254363307645697923e-01 3.771688919265307471e-01 4.156859533654530536e-01 4.309973437147973652e-01 4.332599738258404165e-01 4.251765634132002036e-01 4.248101851893519854e-01 4.472348211611500424e-01 4.785526728747938052e-01 5.092875648600893035e-01 5.338016751496253987e-01 5.670063823236658473e-01 6.136588929700617090e-01 6.666882152117531435e-01 7.064898049844898775e-01 7.177617439125274501e-01 7.151726713627492016e-01 7.115401767597830940e-01 7.132114856012569115e-01 7.053142470264915920e-01 6.832459141785975909e-01 6.697723756908100512e-01 6.713912261462313680e-01 6.725643586277419983e-01 6.674808872254244241e-01 6.711262954917606161e-01 6.896070776621995302e-01 7.066765213860323191e-01 7.069401757222403271e-01 7.002321864266594087e-01 6.869441449272534195e-01 6.695043607988496737e-01 6.498289073744138999e-01 6.356898322481717711e-01 6.191185450007590241e-01 5.872507040913313991e-01 5.479289727914178343e-01 5.035817522190861872e-01 4.726088472597769208e-01 4.625560893516870720e-01 4.572421877495587705e-01 4.557215735735768991e-01 4.483860281893002897e-01 4.396441127095406798e-01 4.385926968854518826e-01 4.377014078774205674e-01 4.322356363355606135e-01 4.162950348867420214e-01 3.844556371131241934e-01 3.354394652224235718e-01 2.759081695579151394e-01 2.151022573555473050e-01 1.579275403112054832e-01 1.161859913270096301e-01 8.484819212115000953e-02 5.109293119901547192e-02 1.898833788654735386e-02 -6.268149175389191655e-03 -2.119544818079281689e-02 -3.799238306878410798e-02 -6.599662068645806290e-02 -9.620093204706635370e-02 -1.258899679223750290e-01 -1.506608586498169311e-01 -1.656463645902401804e-01 -1.696176383915731500e-01 -1.685043061485350657e-01 -1.699838073924611892e-01 -1.748850235369859563e-01 -1.732154279670103103e-01 -1.794717836510655862e-01
-6.846386760755310830e-01 -6.732694320493926021e-01 -6.606613814239249427e-01 -6.648460654294664485e-01 -6.726055332630297423e-01 -6.822069142615062587e-01 -6.866105020212276422e-01 -6.701830064825358146e-01 -6.483884654497774624e-01 -6.229975497454424138e-01 -6.043409006265308969e-01 -6.103644811394273173e-01 -6.263358484034072804e-01 -6.500022566395654566e-01 -6.716103459022002564e-01 -6.758756909565647453e-01 -6.771640790514195096e-01 -6.757084928849996786e-01 -6.834027534681981209e-01 -7.116738683815108102e-01 -7.365092546888042380e-01 -7.474074501276096738e-01 -7.290094336280179554e-01 -6.726829432482196447e-01 -6.051794290315405389e-01 -5.336820730059739226e-01 -4.782654838620577498e-01 -4.559926822479586361e-01 -4.452886815133244025e-01 -4.396083611480758879e-01 -4.212080866347296393e-01 -3.712653718838175299e-01 -3.091135822320770776e-01 -2.536679482289930232e-01 -2.101468055029555859e-01 -1.660669904094339844e-01 -1.142118156258428718e-01 -6.213896989427449002e-02 -2.431559803912973494e-02 1.919794951359512277e-03 4.016850325707811004e-02 8.803351443474810578e-02 1.542727660987002203e-01 2.290274463162791652e-01 2.911424817179003588e-01 3.504968485023778335e-01 4.037012970866613037e-01 4.313372996526561587e-01 4.376309763180596946e-01 4.296306368891565919e-01 4.254844745466844214e-01 4.458915488403760174e-01 4.801000684792357531e-01 5.164394026157010931e-01 5.486735739751992247e-01 5.865018478850678729e-01 6.330456954685980131e-01 6.827520953694422579e-01 7.163622574292867196e-01 7.236378363488749077e-01 7.207243407204805274e-01 7.131924448940241135e-01 7.060729584365817990e-01 6.923202227942060194e-01 6.704200692063421174e-01 6.629669903339223680e-01 6.764406455688188879e-01 6.858791673394731836e-01 6.820319588322333315e-01 6.811695896309546416e-01 6.893169639518866854e-01 6.994323382639766606e-01 6.997960686319684154e-01 6.997882972803703971e-01 6.988600060752568899e-01 6.890086857467626613e-01 6.694003851915875103e-01 6.510921303341598021e-01 6.272582824717004568e-01 5.908900222751074516e-01 5.510604325599939290e-01 5.069949316852357946e-01 4.750203156271914917e-01 4.605933414104481094e-01 4.485984283557132302e-01 4.384405172953512730e-01 4.226459474416442430e-01 4.108612340121007844e-01 4.118031895782524598e-01 4.191855902905075593e-01 4.282058183229915937e-01 4.240858837367774692e-01 3.988664692950762425e-01 3.554756256402303305e-01 3.007566648555581312e-01 2.441111147976566531e-01 1.902889606220463103e-01 1.475184695800131063e-01 1.112445926184858214e-01 7.507930095709734741e-02 4.450345443529977324e-02 2.492140836931904663e-02 1.840772972311761901e-02 6.224667774520972231e-03 -2.180173431458379968e-02 -5.850707733529464383e-02 -9.876287517814280603e-02 -1.275701036228337470e-01 -1.394901339602447055e-01 -1.409033100646741032e-01 -1.382144589643349297e-01 -1.386475292036471740e-01 -1.430397724428851269e-01 -1.440634711627970244e-01 -1.567812732527486264e-01
-7.229331850627013223e-01 -7.226430346445389397e-01 -7.119330672761280399e-01 -7.061288152290348119e-01 -7.055869407677939353e-01 -7.083445535252440584e-01 -7.104788998988050830e-01 -6.998540620290647496e-01 -6.841164038764451227e-01 -6.635896092816518932e-01 -6.432040873523114932e-01 -6.379361956774941556e-01 -6.418298523887737694e-01 -6.507402005366840214e-01 -6.597735878101617102e-01 -6.659168927694574247e-01 -6.764136623746932475e-01 -6.825913345513197061e-01 -6.903097998592926388e-01 -7.156825661597584487e-01 -7.461146346083229464e-01 -7.635931418654438030e-01 -7.473623464622024537e-01 -6.912203557225630179e-01 -6.247373357352240530e-01 -5.535309919603821349e-01 -4.963369543554349006e-01 -4.719948987893592407e-01 -4.603234162924150774e-01 -4.559536916116379013e-01 -4.454205959911541890e-01 -4.063176482990633609e-01 -3.510345945805539158e-01 -2.960140685187788168e-01 -2.413395876850727984e-01 -1.849918516967321569e-01 -1.300955313605165198e-01 -8.056279828339894811e-02 -4.846658016278001385e-02 -2.285671931885363550e-02 2.009720035157161813e-02 7.272238634809530256e-02 1.371714800125241052e-01 2.045245320096241437e-01 2.627289206138364586e-01 3.182710750991584736e-01 3.747800512545883533e-01 4.166038030337295694e-01 4.369268143289543049e-01 4.389753142533667218e-01 4.346074875653383462e-01 4.502737756291881333e-01 4.857523324926086294e-01 5.245116260521933693e-01 5.591579460745671470e-01 5.979706994140627785e-01 6.437782295179157455e-01 6.907984343742959998e-01 7.226221240105016319e-01 7.324414457824637292e-01 7.338280722948998802e-01 7.224630621367287286e-01 7.014231760001417015e-01 6.801208992241057905e-01 6.630887100869674589e-01 6.596239410956793447e-01 6.732570901831443910e-01 6.823146512121496254e-01 6.795568015772163184e-01 6.809107664924909376e-01 6.902737881909696283e-01 7.002581330259559644e-01 7.021027339641385812e-01 7.066743712181148274e-01 7.101948515395262174e-01 7.000279494424326288e-01 6.774619334062011999e-01 6.540028884697400846e-01 6.259377612248302469e-01 5.891015372202268452e-01 5.501566453968184112e-01 5.130090445677033539e-01 4.891855422639694861e-01 4.721917249647575310e-01 4.488486459553095997e-01 4.281227408681557711e-01 4.081391447597617073e-01 3.979610363845515475e-01 4.008526707869206063e-01 4.083025318554396876e-01 4.166507748433470604e-01 4.151300626950638062e-01 3.959409453191033990e-01 3.562438150888102562e-01 3.053801958657957338e-01 2.561953437658411881e-01 2.106533440706259697e-01 1.692554925894225459e-01 1.274451406543375964e-01 8.843963523443973407e-02 6.046409013899765178e-02 4.825202734166401941e-02 5.020789520997203520e-02 4.179355460660528349e-02 1.469023591269459118e-02 -2.293780425528608655e-02 -6.470933919793331324e-02 -9.204260856440815708e-02 -1.001797547833628566e-01 -1.012362737225847020e-01 -9.816638938696843619e-02 -9.455730941037732151e-02 -9.444788361091580042e-02 -1.019900473528482232e-01 -1.303001531010110348e-01
-7.351660900853635994e-01 -7.524161987536204244e-01 -7.514399445497695895e-01 -7.387594206009505671e-01 -7.283205808923706170e-01 -7.193745851485008336e-01 -7.113830272075529759e-01 -7.022066980952083037e-01 -6.932479747062959552e-01 -6.816871727694455707e-01 -6.673104707754734521e-01 -6.561946514224346050e-01 -6.493854300116563838e-01 -6.421376976772044110e-01 -6.354419611757903263e-01 -6.431542299053653045e-01 -6.647638719470383428e-01 -6.819815283293448882e-01 -6.938593796524027413e-01 -7.175240288258729615e-01 -7.525358868950804414e-01 -7.773457968408177265e-01 -7.672068869066110963e-01 -7.153522152040354687e-01 -6.519932255084288641e-01 -5.846139291585259468e-01 -5.320042463832720392e-01 -5.098892852042482549e-01 -4.968817683777188021e-01 -4.871162329242275657e-01 -4.700443493805863682e-01 -4.320453919343642535e-01 -3.840812387073589407e-01 -3.364907489419505793e-01 -2.841557370387294834e-01 -2.248413767595785762e-01 -1.673161641774598696e-01 -1.145063023260290552e-01 -7.504012298137509307e-02 -3.878899559520359447e-02 1.246575217534619771e-02 7.315867505624189249e-02 1.383371230215655057e-01 1.965657466746532911e-01 2.465275646692013101e-01 2.887327199948390710e-01 3.350380628592908860e-01 3.859903917510535409e-01 4.251099977356463389e-01 4.447892420392019486e-01 4.474193386364443970e-01 4.608018123505702723e-01 4.959483864544346199e-01 5.317022507500308581e-01 5.600697006643235998e-01 5.939971595870472409e-01 6.381066974976195016e-01 6.820823585531033961e-01 7.124345470438557815e-01 7.257009244503757062e-01 7.323252121549896909e-01 7.238669653215441535e-01 7.024740389512806882e-01 6.844886611440315072e-01 6.764552083060363374e-01 6.728963928837621289e-01 6.730053965097948510e-01 6.706643471402349288e-01 6.658352581221098632e-01 6.692907753223524825e-01 6.823777504605269550e-01 6.946124393903355676e-01 6.993733478816185345e-01 7.065031205440713835e-01 7.078734992166938467e-01 6.922557063076441031e-01 6.662081956941793282e-01 6.427112518096386173e-01 6.217337166231773349e-01 5.927947188813200707e-01 5.563417660542465670e-01 5.243290966429685618e-01 5.032872265642677201e-01 4.793443914676911999e-01 4.434760298582443583e-01 4.144282728077394728e-01 3.965303314123413414e-01 3.923814192151645619e-01 3.972479479612086029e-01 4.014038061994171791e-01 4.027869902240693301e-01 3.993933003190953124e-01 3.849765489790755724e-01 3.478653113343810888e-01 3.007683006703484874e-01 2.608983010985644335e-01 2.263599652249877470e-01 1.902080655998451553e-01 1.467400293612478313e-01 1.058898410460061695e-01 7.850241488575830651e-02 6.427694158704297389e-02 5.946950878803446833e-02 4.648770174218078144e-02 2.136589823542978453e-02 -8.866727259909159761e-03 -3.894448786353800485e-02 -5.746271086631401376e-02 -6.169547817052241367e-02 -6.372647891345961657e-02 -6.099358025649146559e-02 -5.207033788448218320e-02 -4.505326621646418145e-02 -5.329059478098540498e-02 -8.827099635054291848e-02
-7.274251255630382884e-01 -7.555822640098017740e-01 -7.627250624479970931e-01 -7.499576940991701246e-01 -7.355621953967727000e-01 -7.200449732134059921e-01 -7.049345265433227814e-01 -6.942310480728878241e-01 -6.879378385180158206e-01 -6.809625914710827344e-01 -6.712281878120506251e-01 -6.599815322394445571e-01 -6.499397259850631103e-01 -6.378247485609683798e-01 -6.281348110297266807e-01 -6.384632794630661357e-01 -6.634702863976833509e-01 -6.838030324833590523e-01 -6.967284522843724126e-01 -7.191707546782711846e-01 -7.555270345224788242e-01 -7.859395852079444911e-01 -7.856345213586445331e-01 -7.428017620262579168e-01 -6.846054836617715411e-01 -6.219663777669732774e-01 -5.737164815726234490e-01 -5.529425492316859536e-01 -5.376284375084922074e-01 -5.190303704244534355e-01 -4.860141721013065408e-01 -4.388982958629316644e-01 -3.935142725001369302e-01 -3.551536662245882159e-01 -3.175249116061904520e-01 -2.673465405128007677e-01 -2.093638232865100701e-01 -1.516537817783270570e-01 -1.032615214559540889e-01 -5.817427967627134683e-02 -2.081863390976295379e-03 6.401000854225392944e-02 1.324705504982357507e-01 1.871447533720040912e-01 2.305660635559764471e-01 2.643553132526909599e-01 3.048157111124336072e-01 3.614867077473203349e-01 4.139205731852565462e-01 4.473049155935156507e-01 4.587151310786993230e-01 4.739525281357800379e-01 5.076176317057137233e-01 5.378079121756338399e-01 5.580271810273016442e-01 5.861276383807232371e-01 6.281135514608293668e-01 6.671966831382993846e-01 6.896984946144580908e-01 6.978907382692550732e-01 7.039647850788393058e-01 7.021286839207790953e-01 6.949028272027701902e-01 6.900664810950862815e-01 6.901062447120056564e-01 6.877692888920130532e-01 6.793843918018689365e-01 6.673081804690765839e-01 6.562758427086762270e-01 6.518106201006370615e-01 6.557806176526220776e-01 6.642424988454392887e-01 6.725222059288770149e-01 6.846021300580428237e-01 6.896262064354167221e-01 6.749403782144209885e-01 6.489442514052878863e-01 6.300501352541063582e-01 6.202199688909292297e-01 6.005801726664377060e-01 5.670020878403394526e-01 5.329228046224196991e-01 5.029866483217322326e-01 4.692942011091615351e-01 4.269062071119351098e-01 3.939171369993845762e-01 3.773191658006730953e-01 3.764501934128234306e-01 3.829981225314851856e-01 3.902115290473021081e-01 3.962279776294698186e-01 3.965825541315767255e-01 3.850249237049327977e-01 3.508458028744516621e-01 3.083270880794026780e-01 2.758836195847664263e-01 2.495567259780573643e-01 2.188523057881634204e-01 1.761485249218096572e-01 1.329495106132594362e-01 1.017605930424476668e-01 7.637960896296601410e-02 5.491517006517512844e-02 3.371577324761817346e-02 1.117138716853222948e-02 -1.201501404792770789e-02 -3.220370670900436078e-02 -4.400301676935110262e-02 -4.597353792415838358e-02 -4.827518558683276811e-02 -4.538969367733943633e-02 -3.335109054000071072e-02 -2.161142650721716366e-02 -2.118927680856893744e-02 -4.438634814136226819e-02
-7.164363078711900590e-01 -7.492084044089308836e-01 -7.623694751978937756e-01 -7.548147445335585681e-01 -7.419941711504540738e-01 -7.256750003268789273e-01 -7.086479756638400795e-01 -6.962362318096408931e-01 -6.896113227399438550e-01 -6.827054903645419781e-01 -6.736983570547359079e-01 -6.642877441028085528e-01 -6.563130032372315181e-01 -6.483487059402686103e-01 -6.462032377455670940e-01 -6.601568674296527384e-01 -6.819741756787575104e-01 -6.982682206357432309e-01 -7.079115087351075530e-01 -7.266136002069856215e-01 -7.583762989812112831e-01 -7.874646512420206967e-01 -7.923940126769370984e-01 -7.582849384925542946e-01 -7.072473083788474169e-01 -6.511233786538893620e-01 -6.064492253964117729e-01 -5.839579766922902149e-01 -5.641204279533695853e-01 -5.367904501177904741e-01 -4.901834901238849573e-01 -4.340354382105844344e-01 -3.880232895921501557e-01 -3.554590306408876854e-01 -3.321571816727505455e-01 -2.940218742749139413e-01 -2.379867650899564757e-01 -1.771640597361644753e-01 -1.226263767349203559e-01 -7.296188721745060224e-02 -1.595864686252434703e-02 5.117084730909955692e-02 1.212707288768405667e-01 1.747088680274660188e-01 2.132408446405464064e-01 2.450537525096963820e-01 2.878022534300717084e-01 3.498725948534057717e-01 4.101046379985367474e-01 4.518340360650636156e-01 4.699253883362872197e-01 4.869667826683242717e-01 5.166418766133734630e-01 5.405668415756433864e-01 5.559958124344668295e-01 5.810878427588379580e-01 6.203313303082702568e-01 6.517680117717691290e-01 6.602350728072509112e-01 6.563290196791001785e-01 6.569059246005944930e-01 6.600297621462301034e-01 6.690921856535168022e-01 6.784822543380536475e-01 6.846584474696149059e-01 6.860917620623318003e-01 6.782638636426654433e-01 6.637320773224103521e-01 6.479313402455583182e-01 6.322324653073584377e-01 6.205221182564745197e-01 6.220476068028188976e-01 6.346455087117298666e-01 6.528140369690694778e-01 6.636999323747063695e-01 6.524228668749225690e-01 6.274555025535650810e-01 6.118404239250164744e-01 6.085826524834095919e-01 5.949027955508772170e-01 5.646903660721583895e-01 5.283120321125549523e-01 4.896174387960599006e-01 4.495436073251934395e-01 4.063823142508746211e-01 3.731971625610386867e-01 3.575783395001398968e-01 3.582250587960723598e-01 3.660779729621753131e-01 3.788810184708289452e-01 3.944068781984351180e-01 4.002897637054839697e-01 3.892570765293630330e-01 3.563665206208959102e-01 3.161559600861995611e-01 2.878236189013457236e-01 2.671221902469048670e-01 2.407660865388498994e-01 1.998836747269272240e-01 1.558915985148913996e-01 1.217006496119361625e-01 8.611237006843132369e-02 4.980897612447697520e-02 2.191390364464479087e-02 1.945582513909162141e-03 -1.817907710616734410e-02 -3.608142602760502221e-02 -4.700220767580095410e-02 -4.938396182608133927e-02 -5.196134734323139964e-02 -4.811275992561583892e-02 -3.395146292901020380e-02 -1.906439715694042969e-02 -6.713739895603518248e-03 -1.119794187795428858e-02
-7.106468409516000229e-01 -7.416567534882739787e-01 -7.647977710267384044e-01 -7.730963164478789063e-01 -7.670344417129806303e-01 -7.532319976682001483e-01 -7.359809521785408704e-01 -7.192007752949844956e-01 -7.080505218643646792e-01 -6.968310905738293037e-01 -6.860076318471705070e-01 -6.795297077773728711e-01 -6.751399146328203038e-01 -6.755733083503296932e-01 -6.863183367533746138e-01 -7.010832144762499940e-01 -7.110746915796769541e-01 -7.182321363504203804e-01 -7.286840686925296628e-01 -7.472431242335410007e-01 -7.676562107989168826e-01 -7.809128758262282588e-01 -7.754073991096660512e-01 -7.477228319167419368e-01 -7.112197854629359606e-01 -6.732484867698208530e-01 -6.399069478535622801e-01 -6.102117192677181112e-01 -5.771919838506769374e-01 -5.394500073839506582e-01 -4.902802577794606043e-01 -4.350657263073427483e-01 -3.856556922241551333e-01 -3.495262448212906881e-01 -3.304380783677415834e-01 -3.032353722431374021e-01 -2.544870175481490637e-01 -1.913738288368049822e-01 -1.231375687760497412e-01 -6.404003006333892911e-02 -1.006861772684269386e-02 5.017809224868978457e-02 1.157076165159964531e-01 1.692228218141456630e-01 2.069971284751442320e-01 2.438299783473202031e-01 2.921688245674854412e-01 3.523612280446572487e-01 4.105288950090931199e-01 4.558385883998734567e-01 4.823938742028847648e-01 5.003883256569062743e-01 5.185560949547771692e-01 5.338286778959706602e-01 5.523324673691646369e-01 5.810359272792057217e-01 6.145399347406642621e-01 6.335632700191679012e-01 6.253765899212289092e-01 6.090119334439325627e-01 6.025649922005692494e-01 6.079551785994289359e-01 6.300230500641570419e-01 6.510171360665125695e-01 6.616817963718988338e-01 6.640888649174585545e-01 6.562528072413760238e-01 6.448130423753057894e-01 6.330203603398442125e-01 6.149549640567243403e-01 5.952158733103900534e-01 5.952879973117778389e-01 6.158066926024743371e-01 6.343852847748758794e-01 6.352646321429631371e-01 6.170258899942222541e-01 5.932086190068029952e-01 5.768157054692150121e-01 5.710552609473902308e-01 5.591962850607636870e-01 5.358712154050534471e-01 5.084939973069555474e-01 4.745572429421285321e-01 4.331262163985313829e-01 3.888056462741834585e-01 3.576596782476375025e-01 3.499635784343512745e-01 3.576600006646115659e-01 3.665928906861470327e-01 3.756874565987767256e-01 3.860060872104247309e-01 3.904729508076545952e-01 3.806786696941903414e-01 3.469823405453302811e-01 3.017107544698088284e-01 2.711130841735248653e-01 2.545312122594373672e-01 2.318998877481756593e-01 1.964623368403752846e-01 1.596563876482645083e-01 1.310094310431203224e-01 9.394270298566011201e-02 4.782990859079621487e-02 1.355663752375229139e-02 -4.560806867496769446e-03 -2.279742275554079087e-02 -4.031868993508597870e-02 -5.264189668724787025e-02 -5.743612698898181018e-02 -5.977390107790728907e-02 -5.221989156571972546e-02 -3.408511848371017366e-02 -1.586723685766823835e-02 6.503107027620779086e-03 1.468314390609671942e-02
-7.207669499080903153e-01 -7.456914177257861764e-01 -7.753055012638067067e-01 -7.993668532640401114e-01 -8.022092549627121150e-01 -7.951517585089801221e-01 -7.842487403034752447e-01 -7.670991385599995604e-01 -7.510714664813060715e-01 -7.355466923305334914e-01 -7.259640061325752791e-01 -7.254070826735813382e-01 -7.241376894992521684e-01 -7.295023709147091528e-01 -7.443933722362716665e-01 -7.505454129861629520e-01 -7.442583252168551988e-01 -7.390171811035890492e-01 -7.472624829256915291e-01 -7.633128581136783275e-01 -7.696654546820574927e-01 -7.621943065804576145e-01 -7.406027655140493549e-01 -7.177620126677520807e-01 -6.972904168716498319e-01 -6.788315647297121780e-01 -6.546019754051387585e-01 -6.126790242289615884e-01 -5.638687239467390366e-01 -5.192890535107700378e-01 -4.803996165621304826e-01 -4.360642254931157979e-01 -3.823585100900291911e-01 -3.347976430781202661e-01 -3.063302326308691148e-01 -2.820354155653267414e-01 -2.419040948527665102e-01 -1.821181611937629508e-01 -1.091366977555749823e-01 -4.804572400675182625e-02 -7.239046700729127783e-04 4.749593280292332964e-02 1.023415888070639546e-01 1.543646204032715630e-01 1.940131315733516493e-01 2.392293683264276327e-01 2.940811564276404333e-01 3.486644825983208906e-01 3.995390356961873168e-01 4.469790549054626361e-01 4.861353014942814688e-01 5.083626297487593426e-01 5.143297390332662866e-01 5.200737027654915856e-01 5.411727091048260663e-01 5.729865037474614065e-01 5.994925262904442498e-01 6.111863405587815157e-01 6.004087694830497757e-01 5.821320050141796099e-01 5.689897850195777540e-01 5.659199450531640085e-01 5.790260325485602211e-01 5.954119552376495594e-01 6.066530370688952845e-01 6.079034544930319584e-01 6.002731863350341257e-01 5.958829313741383915e-01 5.943727723219969228e-01 5.847464859825819428e-01 5.712272828159736804e-01 5.784528223276841352e-01 6.079410958543165489e-01 6.265504708041453874e-01 6.162332676113625451e-01 5.899903547184960351e-01 5.667280720598097954e-01 5.450833030379875765e-01 5.284511265132713076e-01 5.133826563161835166e-01 4.972971567097289047e-01 4.843142039050024605e-01 4.635600862606882311e-01 4.249242082063752757e-01 3.792866528230586787e-01 3.484787823931872475e-01 3.462953011316361462e-01 3.598197787856076135e-01 3.692477701450394556e-01 3.690998725755745280e-01 3.649424797583562530e-01 3.630596949674899654e-01 3.545556472060305553e-01 3.214215721136126080e-01 2.725166906107496789e-01 2.392494563702584620e-01 2.250979942378237564e-01 2.027592314004857676e-01 1.699771780377939967e-01 1.422064569266196510e-01 1.248149769961996031e-01 9.960703660078019939e-02 6.095329032941311509e-02 2.856898757190942315e-02 1.161070572614866271e-02 -6.088374321989175469e-03 -2.458651703322070267e-02 -3.938047040685063727e-02 -4.730703720256115158e-02 -5.171906832357590217e-02 -4.409550546026623496e-02 -2.408408975493901358e-02 -3.321718794304803768e-03 2.167646402838037736e-02 2.898207702977511485e-02
-7.358978596141294570e-01 -7.583015005622969484e-01 -7.880862904531098501e-01 -8.176443827456656432e-01 -8.275534529216863611e-01 -8.291083621478068100e-01 -8.291338895877081727e-01 -8.182970037162049515e-01 -8.021209089332225206e-01 -7.871443445484066492e-01 -7.831377183411530885e-01 -7.885222909320782625e-01 -7.876952766131460892e-01 -7.904661269613769692e-01 -7.977187223128502369e-01 -7.920942405864848102e-01 -7.757490660540066196e-01 -7.610453256534189803e-01 -7.595219408259628047e-01 -7.656431341212246444e-01 -7.609919698006334388e-01 -7.428501718268919474e-01 -7.164742476248554537e-01 -6.983630952085105870e-01 -6.857817746152269356e-01 -6.742502057589274678e-01 -6.493018754662501779e-01 -5.988326054076650307e-01 -5.430430602229945336e-01 -4.961010891997987837e-01 -4.626928772800566469e-01 -4.229862673350257007e-01 -3.657774140890995285e-01 -3.107618735107857133e-01 -2.749412029360275844e-01 -2.501261851111324930e-01 -2.150007321079694944e-01 -1.635692056992582022e-01 -1.024592203851210220e-01 -5.167754677556454790e-02 -1.067557602220828121e-02 2.995996799131490571e-02 7.741045877740466985e-02 1.266400555142122297e-01 1.663864033450594138e-01 2.148626667169772353e-01 2.725676818571318716e-01 3.255013788517466256e-01 3.743012833629859037e-01 4.257960034480476330e-01 4.762627939512980024e-01 5.050915900233171607e-01 5.075464044796613727e-01 5.075293263863946969e-01 5.238886411264125353e-01 5.519215010054525639e-01 5.737781234024429411e-01 5.862258267344296891e-01 5.839730741499091771e-01 5.699727370360814227e-01 5.507738418034572314e-01 5.337421820108765314e-01 5.258815014334737858e-01 5.283121484678104940e-01 5.372550043988432167e-01 5.379648945879696997e-01 5.326825397287798802e-01 5.355266870299437709e-01 5.437687614681931958e-01 5.444217135147989550e-01 5.404760767378021802e-01 5.546887093341142938e-01 5.889370066582805263e-01 6.124262293214343122e-01 6.060971518071271991e-01 5.806798446211212106e-01 5.553698982232351256e-01 5.284247123633586396e-01 5.046038501935623533e-01 4.871118796276623364e-01 4.740725232745536255e-01 4.658390353417716234e-01 4.486211067584327528e-01 4.108840935998776533e-01 3.661338145291254120e-01 3.341316191232883703e-01 3.296823360917658374e-01 3.424953743921860250e-01 3.519660714318790240e-01 3.492082923815264528e-01 3.407933540853478882e-01 3.361854662665093585e-01 3.263872855097291747e-01 2.946366970922809081e-01 2.486693818393247990e-01 2.173987568337354404e-01 2.045786411745388333e-01 1.806388866797525861e-01 1.465849383950120488e-01 1.238214732252180955e-01 1.161208590415880454e-01 1.048671781367418038e-01 8.037135071416694199e-02 5.434583829071947675e-02 3.774157962221954404e-02 1.953938638858000384e-02 -4.618575053189070858e-04 -1.754605012708976286e-02 -2.806414878122304862e-02 -3.715477480100375790e-02 -3.489201742287894453e-02 -1.646638023146307361e-02 5.862066250449445015e-03 3.048641880973803828e-02 3.426120863473909595e-02
-7.476013997699094693e-01 -7.721126344498228100e-01 -8.009850603535506597e-01 -8.302843601321846512e-01 -8.450985137239963585e-01 -8.545836169008740324e-01 -8.660849581657126262e-01 -8.649750243890816925e-01 -8.521824609453413357e-01 -8.405571307163288708e-01 -8.422523261798303684e-01 -8.508651897975124667e-01 -8.483469145678121937e-01 -8.453012699050407308e-01 -8.415562313961489904e-01 -8.257025932486961040e-01 -8.041031181507959369e-01 -7.832870699259996128e-01 -7.709923902641589999e-01 -7.656676935215132040e-01 -7.526651641538670834e-01 -7.307118227519828757e-01 -7.067188850960672841e-01 -6.920514324811715134e-01 -6.808328036586420717e-01 -6.683156519521104011e-01 -6.401170790533698973e-01 -5.880557400854420358e-01 -5.325200815687227696e-01 -4.837567086538008820e-01 -4.453656130418531256e-01 -4.006634511391081177e-01 -3.405134290297420763e-01 -2.841654218719174563e-01 -2.487615298184520929e-01 -2.250798438400193890e-01 -1.921990743508360799e-01 -1.493334805106560914e-01 -1.045707531206039459e-01 -6.629754745955167283e-02 -2.879767252823994123e-02 9.492692744556384052e-03 5.298375104978559486e-02 9.768105831204917933e-02 1.349234435793049969e-01 1.823983286880450083e-01 2.412526508347782872e-01 2.968505240749653717e-01 3.481160464887171901e-01 4.040704637041839242e-01 4.610438596498661612e-01 4.942079805534903003e-01 4.974267709410370442e-01 4.946628891281815710e-01 5.039492319027374378e-01 5.250389005955438115e-01 5.430643373819932229e-01 5.576923811746717918e-01 5.643623764493818085e-01 5.543970082105642572e-01 5.295705270073770565e-01 5.005307357682021729e-01 4.752976539782186038e-01 4.659186268675645781e-01 4.722846034265790194e-01 4.727236609063763528e-01 4.692577825667826885e-01 4.769345332585836483e-01 4.926868446353728226e-01 5.023365831951667193e-01 5.067021402103939476e-01 5.249000240920220772e-01 5.596670004650700081e-01 5.889951515673392812e-01 5.950853886328858477e-01 5.771393099724145825e-01 5.498754711054689714e-01 5.201670580020659740e-01 4.943194841048624277e-01 4.764110252131728562e-01 4.641419406372160328e-01 4.533223495376709766e-01 4.312491490791465210e-01 3.923843637154575403e-01 3.506410307932116277e-01 3.179114841469667940e-01 3.083201483293573908e-01 3.178638916253198055e-01 3.279889454966626872e-01 3.283973923728611410e-01 3.238758563579026695e-01 3.194257219416790083e-01 3.065239214033643189e-01 2.746230309739127740e-01 2.320788318062736721e-01 2.036921732970561894e-01 1.916798212600542284e-01 1.664195204029126629e-01 1.306907645729655509e-01 1.107851394901625541e-01 1.102174265508387985e-01 1.090870527077495572e-01 9.487739624835690722e-02 7.303956904334822642e-02 5.560337398367042050e-02 3.733842833982826959e-02 1.775729327810109809e-02 -4.443796340710521827e-04 -1.365620764859161625e-02 -2.842394028708601986e-02 -3.402493131800177900e-02 -2.022085851398804784e-02 1.129957493045208837e-03 2.512661740970659197e-02 2.920250366177993065e-02
-7.560611480463764744e-01 -7.914400736267818148e-01 -8.254567964798773527e-01 -8.516809967142959792e-01 -8.677882328380114307e-01 -8.818380209184473184e-01 -9.032848754653481915e-01 -9.161696130304034513e-01 -9.115540249919812377e-01 -9.051607597340527445e-01 -9.074188955417483715e-01 -9.110114634058096295e-01 -9.029505953628839121e-01 -8.922151273922266368e-01 -8.767286031409192715e-01 -8.508209418368849475e-01 -8.244454510456203922e-01 -8.004124785087198823e-01 -7.847102410111941317e-01 -7.741994222852888186e-01 -7.544237071493876678e-01 -7.305202718168978260e-01 -7.079057145940730322e-01 -6.890554280650564856e-01 -6.707934676293959564e-01 -6.522706759613883243e-01 -6.284130380753581990e-01 -5.907545291454537884e-01 -5.446500637885197671e-01 -4.947493707544022845e-01 -4.421927278351107105e-01 -3.851659148133098620e-01 -3.238384855321046474e-01 -2.720456903542228244e-01 -2.416919778957776765e-01 -2.168789091029643956e-01 -1.817498564379678438e-01 -1.438359441548771600e-01 -1.100024276592341255e-01 -7.554152549586065635e-02 -3.265125265553699141e-02 1.083395207167605831e-02 4.868024886489261821e-02 7.965459576726276192e-02 1.095724950288710781e-01 1.527742075171155955e-01 2.146960566315427865e-01 2.797363275355871925e-01 3.377310025014643724e-01 3.973917407530127566e-01 4.518197711182450615e-01 4.799834590987238081e-01 4.816417460503449877e-01 4.787541018861256048e-01 4.859740378261001581e-01 5.001986617457018225e-01 5.098562090904892319e-01 5.210522528020086197e-01 5.332829488865019618e-01 5.280607614679835304e-01 4.993584680153115851e-01 4.634978108253120510e-01 4.299148749639177813e-01 4.145004880527043412e-01 4.184789617219709101e-01 4.172925374613604688e-01 4.108010018143333220e-01 4.169403663848879615e-01 4.365681898294530572e-01 4.595321181957558454e-01 4.817614306216236875e-01 5.052576298781464859e-01 5.325921919886560385e-01 5.578563388640869203e-01 5.742269431574230643e-01 5.715875278839228635e-01 5.500803820627788721e-01 5.225945074564670723e-01 4.941541747899354520e-01 4.724459661300663416e-01 4.593625280164627123e-01 4.441853545942792136e-01 4.178234343125363237e-01 3.814399999761355353e-01 3.464564806871106573e-01 3.154710395161022252e-01 3.018306532290460642e-01 3.103426412994359507e-01 3.249913833007797570e-01 3.288897429685661011e-01 3.223013689002681703e-01 3.123074684555018909e-01 2.953697300194548236e-01 2.593101057660971986e-01 2.130366978384729271e-01 1.834786054099737107e-01 1.725083129618635025e-01 1.482147408365539487e-01 1.139168429005632255e-01 9.720721679863547626e-02 1.012516953527650559e-01 1.077957055910612055e-01 9.949012327226861019e-02 7.616484365421773151e-02 5.390565461908158190e-02 3.848838542836041654e-02 2.812344766946396277e-02 1.358881936704505605e-02 -3.148119758469353300e-03 -2.075421762638219106e-02 -3.205778593726718584e-02 -2.840789840462645821e-02 -1.817776700950099467e-02 -1.662989571929116180e-03 4.240353681493078640e-03
-7.621256081409039096e-01 -8.108843726411941732e-01 -8.550516285547439255e-01 -8.806348663833104551e-01 -8.976383827786563741e-01 -9.126552532744027779e-01 -9.350046549166780574e-01 -9.553488485264117758e-01 -9.585687392033982457e-01 -9.561088694295077905e-01 -9.521653877152020939e-01 -9.433062852456286507e-01 -9.266575533119731922e-01 -9.098436399356799598e-01 -8.910432234092218184e-01 -8.630136151191865057e-01 -8.338826901614239118e-01 -8.080155347273542121e-01 -7.919111084003097600e-01 -7.793994863559565722e-01 -7.551404037990593343e-01 -7.318862855575791748e-01 -7.122014124454020267e-01 -6.882015955490646819e-01 -6.611700917567885361e-01 -6.361518361660751797e-01 -6.205813984698606012e-01 -6.040339400553447202e-01 -5.716921538241513945e-01 -5.251714974061668650e-01 -4.650023929598449124e-01 -4.003735282011276486e-01 -3.388479084394038221e-01 -2.906865177112718523e-01 -2.610048457413232659e-01 -2.296463184519693390e-01 -1.895617038568349622e-01 -1.531872976407594733e-01 -1.237398294546614291e-01 -8.667082650566855506e-02 -3.490816722778461445e-02 1.831008858861515529e-02 5.526163469355679231e-02 7.402530111974894855e-02 9.627146369634533019e-02 1.326512552681413659e-01 1.935378621185292469e-01 2.661793088258245232e-01 3.311607001532004824e-01 3.938674195658622978e-01 4.428415655891799751e-01 4.630066485802845633e-01 4.619855411300241022e-01 4.610914665674688551e-01 4.715798884730337814e-01 4.815209639273117515e-01 4.809751875414937650e-01 4.802934506483213517e-01 4.835138135414395744e-01 4.749194704303387748e-01 4.441940553779639145e-01 4.096693535091958660e-01 3.813377280383298262e-01 3.684742792486455643e-01 3.703961055020411619e-01 3.707775469834660442e-01 3.681027920602156778e-01 3.759064246908639939e-01 3.976397044720612062e-01 4.319692209698781649e-01 4.695747266181309887e-01 4.952467577640654595e-01 5.120343231878662360e-01 5.239076792416755834e-01 5.380115727211983723e-01 5.472731131745885991e-01 5.367520228697085782e-01 5.155843875922967445e-01 4.851431461467178297e-01 4.577335070453690813e-01 4.418281048311490378e-01 4.224492191904993810e-01 3.949358460399506332e-01 3.636848264788598573e-01 3.361918473080274805e-01 3.102556943904447029e-01 2.981792219598163873e-01 3.096739717899300581e-01 3.301587832878142281e-01 3.349835646437679948e-01 3.196593130996862597e-01 2.996865931605701139e-01 2.788766238006684106e-01 2.384907398674248891e-01 1.875015368969945584e-01 1.565468914940522094e-01 1.475998812157452156e-01 1.277768925132378997e-01 9.942423358804675093e-02 8.617028900840494055e-02 9.052224021742914795e-02 9.775060180727801473e-02 8.673356315375808923e-02 5.646983100188966709e-02 2.781509249757410998e-02 1.399788082842479478e-02 1.245179586782701846e-02 2.783728421073380661e-03 -1.494750699829586540e-02 -2.454488419158967413e-02 -2.633556163264702196e-02 -2.764073908963419340e-02 -3.292630632102114957e-02 -2.777955640333803350e-02 -2.128965503385136376e-02
-7.706541549000467395e-01 -8.225532660009367003e-01 -8.709590756863015981e-01 -8.984967149632503425e-01 -9.188713836743549468e-01 -9.358638790453315259e-01 -9.553807063219640350e-01 -9.746133152314790937e-01 -9.799138212346703014e-01 -9.781356525890007036e-01 -9.690159958347864810e-01 -9.515585996840100202e-01 -9.279452074894999347e-01 -9.074748739409883580e-01 -8.909649719473040630e-01 -8.656984818668250758e-01 -8.353092090655852564e-01 -8.062018211027083270e-01 -7.847492533942201920e-01 -7.672820693730577624e-01 -7.408169226904597338e-01 -7.205739593562719980e-01 -7.082858307374201301e-01 -6.884073964857944095e-01 -6.614557699980687655e-01 -6.360029918494749523e-01 -6.243226051961493495e-01 -6.172193815615829582e-01 -5.925706267935469951e-01 -5.517682756670999611e-01 -4.973169063640255350e-01 -4.349494090176985739e-01 -3.711273008854129030e-01 -3.188215343649373201e-01 -2.811030422850742116e-01 -2.412491318239582128e-01 -1.983929813223472283e-01 -1.647545283896631185e-01 -1.413838433693813956e-01 -1.071095096038366945e-01 -5.366866483768641116e-02 4.244805616324650102e-03 4.549316729161497624e-02 6.346969808683228242e-02 8.341825499241978248e-02 1.150498327699755741e-01 1.700218903565507145e-01 2.410367028835131431e-01 3.074923669999284903e-01 3.727754525428455534e-01 4.238876722641049533e-01 4.440820618717232771e-01 4.417763001296959868e-01 4.404707902322864133e-01 4.508595658960242725e-01 4.569792692909803167e-01 4.493593592979585050e-01 4.378578900465984747e-01 4.285126817348475226e-01 4.136433680532938251e-01 3.833311523316049740e-01 3.522628537034895313e-01 3.292203179332134910e-01 3.181415341647300665e-01 3.175485636916115517e-01 3.218156113999584567e-01 3.303909444398397399e-01 3.463655759969546666e-01 3.709092958319378797e-01 4.089958909924750752e-01 4.489573296932695690e-01 4.729064601436647197e-01 4.855972143774149874e-01 4.903108941912916463e-01 5.004092767318419899e-01 5.157932980236288323e-01 5.156168612644870253e-01 5.011102499642673402e-01 4.709429696547473010e-01 4.397449353379766501e-01 4.199717742506265949e-01 3.965338608543421683e-01 3.670556254129471174e-01 3.370035252970232653e-01 3.126850785816257527e-01 2.911855009614581213e-01 2.832501918085542081e-01 2.979275871387698227e-01 3.207965308652899750e-01 3.247267220611075311e-01 3.034708533411946130e-01 2.776224800191426367e-01 2.549023930411372652e-01 2.156733741913156865e-01 1.684632917183627454e-01 1.413797357000317889e-01 1.354099988837239310e-01 1.194329392493455599e-01 9.439254102582414485e-02 8.077619457292592453e-02 8.108682909766419533e-02 8.316110965683089218e-02 6.609176649173782725e-02 3.069510242895091140e-02 -1.003877627805893884e-03 -1.640848267354059684e-02 -1.707852395760928177e-02 -2.392114911015595646e-02 -3.816040353629295695e-02 -3.571550311325603910e-02 -2.236496284647868441e-02 -2.181002574417902073e-02 -3.686685255715504289e-02 -4.054964236871694272e-02 -3.816299158669656660e-02
-7.900874930285742836e-01 -8.363164148472138626e-01 -8.791104136087835030e-01 -9.043862746590031199e-01 -9.263410092057113854e-01 -9.453525686063606326e-01 -9.639222894187123858e-01 -9.809145730313058031e-01 -9.854580904082833603e-01 -9.824448865313907264e-01 -9.696927867626207176e-01 -9.478942781993493494e-01 -9.208586781285075240e-01 -8.992567073742954165e-01 -8.869404512225554926e-01 -8.668758080284867384e-01 -8.377586033749252481e-01 -8.064531237915855133e-01 -7.771074139029156003e-01 -7.520157201552576387e-01 -7.247737924872743598e-01 -7.091620699297085384e-01 -7.071619710611105614e-01 -6.971752075074871824e-01 -6.752081426868874470e-01 -6.525766553352200239e-01 -6.417415130418453462e-01 -6.356857033062546236e-01 -6.126774927015018468e-01 -5.750511038745982351e-01 -5.276928221560571730e-01 -4.683278459167884433e-01 -3.999562105361104680e-01 -3.397589793577769912e-01 -2.923071783736197471e-01 -2.464007297639272398e-01 -2.029029141435829964e-01 -1.729546306371689546e-01 -1.572555240755801609e-01 -1.297408670876671055e-01 -7.956279107942600126e-02 -2.103016091419813646e-02 2.677135998836798966e-02 5.083579407888714347e-02 7.161537391777322847e-02 1.008415524690713244e-01 1.490615878760518376e-01 2.134814538396711259e-01 2.772661109606155416e-01 3.435647004569530316e-01 4.004000033009927351e-01 4.256773782981081999e-01 4.238894381310375215e-01 4.200145702672476444e-01 4.261425748610703779e-01 4.286121128230230282e-01 4.179306170409609611e-01 4.007959921375534029e-01 3.829541179836377096e-01 3.637161250161687343e-01 3.361016301190420386e-01 3.097067787515197512e-01 2.906858600025238881e-01 2.795082371245917741e-01 2.755679823246822147e-01 2.820151790698672833e-01 2.996166339937509915e-01 3.215010408504784811e-01 3.454835401246610371e-01 3.798724016348607457e-01 4.143944060447071753e-01 4.364977346604904107e-01 4.508431271538336782e-01 4.580545887577474051e-01 4.711201320013689298e-01 4.917834946996867962e-01 4.994449221389339333e-01 4.897836631421855769e-01 4.614662569994785191e-01 4.296405544426621370e-01 4.069034240311294459e-01 3.796106838571249864e-01 3.459243875399141688e-01 3.133890899504098715e-01 2.898851899290272316e-01 2.717496574906863027e-01 2.667132604221950642e-01 2.815490175501632053e-01 3.030334681244620243e-01 3.057808167395726362e-01 2.834101445386438267e-01 2.559111747071067811e-01 2.319216493358768894e-01 1.982062965108922215e-01 1.623637835641430771e-01 1.428823005211322106e-01 1.386631030569615841e-01 1.247036518528585602e-01 1.010689961334513692e-01 8.476889159657659267e-02 7.788556277114722093e-02 7.075861820817759551e-02 4.673810839986663329e-02 9.632531111024768972e-03 -2.135577939220225860e-02 -3.953038931164541692e-02 -4.517912041595725792e-02 -5.233413594355575127e-02 -6.217946268969407053e-02 -5.053236664766242586e-02 -2.660111201369602316e-02 -2.450566896331503666e-02 -4.610728823095376627e-02 -5.798582240034050317e-02 -6.330507344473117193e-02
-8.279159633728466750e-01 -8.607993926149880570e-01 -8.866978691156588432e-01 -9.038051201697625547e-01 -9.257352369211248044e-01 -9.482258926122852927e-01 -9.717771180110187368e-01 -9.903122171672720242e-01 -9.942380176047316276e-01 -9.878596890658370988e-01 -9.664992950827244744e-01 -9.377804169939824019e-01 -9.101959053521224696e-01 -8.888488283089428510e-01 -8.810258012404372785e-01 -8.724223235080488248e-01 -8.538426423097578155e-01 -8.302603347778361176e-01 -7.972574959221271351e-01 -7.598207224595066034e-01 -7.279965981176066414e-01 -7.133408524915217930e-01 -7.183343069377187140e-01 -7.173826785071544254e-01 -6.995664344618390817e-01 -6.807994731400447419e-01 -6.751414927009886657e-01 -6.721612217907363407e-01 -6.479050303698516977e-01 -6.082270126434460300e-01 -5.579338693180720954e-01 -4.914023658682139528e-01 -4.141412853463348753e-01 -3.446843716528333323e-01 -2.935121431321931484e-01 -2.517251697131083765e-01 -2.124466366560636699e-01 -1.846683910783619431e-01 -1.682127456427484069e-01 -1.418936094266313452e-01 -9.728325834429489560e-02 -4.205608919324176770e-02 1.281421622125177018e-02 4.844284039109821027e-02 7.357851108828658560e-02 1.058743888737623123e-01 1.518208363327075427e-01 2.073773167111092330e-01 2.638143967660555034e-01 3.245559823589383441e-01 3.807814051889211182e-01 4.095143126540234935e-01 4.094552248291847829e-01 4.003813887854462683e-01 3.993388968899774238e-01 4.031677971290824058e-01 3.988228820157062593e-01 3.837093774350905928e-01 3.571861791042807432e-01 3.291539250625308832e-01 3.042600836777334394e-01 2.887693471210199259e-01 2.836359576426762397e-01 2.761131803457589351e-01 2.660888883726642007e-01 2.687695904006417447e-01 2.857498036428034460e-01 3.036519220560359722e-01 3.186246883873645186e-01 3.397823949848347569e-01 3.669989264233938786e-01 3.955516888620757010e-01 4.204067497991458291e-01 4.437058227368313457e-01 4.674958157806209935e-01 4.866103777255439411e-01 4.916866978967589508e-01 4.777526062456850520e-01 4.518224987677514903e-01 4.278991667955939215e-01 4.081414258416576901e-01 3.811212863830241715e-01 3.433437637270817522e-01 3.068168936255094015e-01 2.848499277513872885e-01 2.736338979116360037e-01 2.719286938263272835e-01 2.801869978344677103e-01 2.921278958478556453e-01 2.919503502734622225e-01 2.727650276120273665e-01 2.436651563243097673e-01 2.120545826398419764e-01 1.840425061368043125e-01 1.657567448947919464e-01 1.538022201909033104e-01 1.432727103948861769e-01 1.301097336720842268e-01 1.160685381070985650e-01 1.023237981696527993e-01 8.483088137034831833e-02 5.950322794429357270e-02 2.399191160909887668e-02 -8.833404625835924312e-03 -3.090599173414333364e-02 -4.997587761288947716e-02 -6.734955255539838703e-02 -8.070054250380861993e-02 -8.648839976907579663e-02 -6.946256404774237003e-02 -4.382695949203722213e-02 -4.638800803475528339e-02 -7.542323735509480487e-02 -9.996675645282281086e-02 -1.170252825816393005e-01
-8.664758925263524869e-01 -8.873191996405711546e-01 -9.020918296472086872e-01 -9.163488017172094491e-01 -9.374407307324723604e-01 -9.599232572922303808e-01 -9.834329653242263047e-01 -9.993014695020937532e-01 -1.001462659648688414e+00 -9.941690386316619499e-01 -9.727629791201179987e-01 -9.460374799402198054e-01 -9.224410741047682771e-01 -8.992914205377318115e-01 -8.840637212440377590e-01 -8.778942941814069645e-01 -8.706814285178640089e-01 -8.611270306816369846e-01 -8.350209583391957624e-01 -7.914046774342190504e-01 -7.543787093254408216e-01 -7.364924165250815724e-01 -7.411798412245544920e-01 -7.435455836358854098e-01 -7.276139485129331508e-01 -7.113156463985979006e-01 -7.095333588831402860e-01 -7.073750728064359672e-01 -6.787567891980492707e-01 -6.326337688508388846e-01 -5.720682214310638392e-01 -4.928682507264317003e-01 -4.063297437025537584e-01 -3.286986507498387278e-01 -2.768788796226132609e-01 -2.431058111727432136e-01 -2.099178030207508872e-01 -1.819730520608371926e-01 -1.572854325922042051e-01 -1.264424937682180894e-01 -8.713143757294293523e-02 -4.184766269468933458e-02 5.844751163397697742e-03 4.313782647037564533e-02 7.131664910890700426e-02 1.093927023551203581e-01 1.585077995166880305e-01 2.079369552055613524e-01 2.562287945504598818e-01 3.095499717347591773e-01 3.633266394213865436e-01 3.952039932405952416e-01 3.978181089467093257e-01 3.839490888795687451e-01 3.763841322517089139e-01 3.844066164691686827e-01 3.903945764328389245e-01 3.846683076669905055e-01 3.590727761833975018e-01 3.270384679714278819e-01 3.043108744811550692e-01 2.959311295232223138e-01 2.973986016960515344e-01 2.883947541796244574e-01 2.718137068911362642e-01 2.678817224825805199e-01 2.776334691152380629e-01 2.859841012802306626e-01 2.892716832046048903e-01 2.964072866184378485e-01 3.199949889788444302e-01 3.600247687475026104e-01 3.978163563937427982e-01 4.396787410244667460e-01 4.732770107019378392e-01 4.847892947608486436e-01 4.803651794154991106e-01 4.568856232279696616e-01 4.325901716422184129e-01 4.197025463338953100e-01 4.061883052304733899e-01 3.825410116667122828e-01 3.428743464694005150e-01 3.037842885478115318e-01 2.847296565421731929e-01 2.842022133905799386e-01 2.905876154696278579e-01 2.932740471932800408e-01 2.938272800657734662e-01 2.930411427533414770e-01 2.834022910907782467e-01 2.558799516925730488e-01 2.146694585261768595e-01 1.864376203470702875e-01 1.766976202741354640e-01 1.653992257787595677e-01 1.449117856543845062e-01 1.291424005707569322e-01 1.229391657897414419e-01 1.125225012377020356e-01 8.653292938055412442e-02 4.639405550223292540e-02 5.214319369554847039e-03 -1.803263969875804409e-02 -2.842951541766558163e-02 -4.314203405265289865e-02 -6.674268505136783658e-02 -8.584640177644965731e-02 -9.153215738071920904e-02 -8.158504905158020515e-02 -7.265731023807661670e-02 -8.968684243647809251e-02 -1.259331694434113191e-01 -1.604993954301257020e-01 -1.844307535156154143e-01
-8.971343666168466457e-01 -9.150421533540961105e-01 -9.326720520711209161e-01 -9.501441124315109787e-01 -9.669485420582002444e-01 -9.808341063912796587e-01 -9.909508694040812804e-01 -9.953572297412521808e-01 -9.941847029225131527e-01 -9.896053854916374570e-01 -9.797974543586470686e-01 -9.659237559304921783e-01 -9.497902210052809879e-01 -9.262664670747057238e-01 -8.998340389638657122e-01 -8.861878115605645867e-01 -8.817632026699990799e-01 -8.799486399557173710e-01 -8.631350068591419067e-01 -8.227614063428020375e-01 -7.845571914771889421e-01 -7.645063756981159697e-01 -7.670631946457968642e-01 -7.687924225647450038e-01 -7.526362030761430955e-01 -7.346145282134426413e-01 -7.276408839755703628e-01 -7.184113349926599668e-01 -6.828390457845445738e-01 -6.309818787130919704e-01 -5.663094081250723555e-01 -4.834146998306848575e-01 -3.939200151959214025e-01 -3.120729347406785981e-01 -2.564161493410143655e-01 -2.228021416807078048e-01 -1.915933613846774186e-01 -1.631272016749490683e-01 -1.340260094146486503e-01 -1.004337377806950871e-01 -6.300308463615474086e-02 -2.671220290447792398e-02 4.934515580743867487e-03 3.140191117096988171e-02 5.663662048868214199e-02 9.464067658313211895e-02 1.440497494350991836e-01 1.907719516515589131e-01 2.353024807623805281e-01 2.870674220748231087e-01 3.442595859753528331e-01 3.814718676619178739e-01 3.872843196912724717e-01 3.735872208854240095e-01 3.651654666270272576e-01 3.756199046053931290e-01 3.858640264105364093e-01 3.869246605038133002e-01 3.686515391114026374e-01 3.400906349417949781e-01 3.187659092951405371e-01 3.083085908835141997e-01 3.018379570880051488e-01 2.854135162133136228e-01 2.664114691420002012e-01 2.616977419934540805e-01 2.709164674348411017e-01 2.760668276851608871e-01 2.731222004487367516e-01 2.735272543066697981e-01 2.953827486145701453e-01 3.395033975253821112e-01 3.814624561878767195e-01 4.271379674135932780e-01 4.583168313864701693e-01 4.616714684976164218e-01 4.507996655885548876e-01 4.218018410087084891e-01 3.973256836248522661e-01 3.890000166967224060e-01 3.790009193664496401e-01 3.582909292614769314e-01 3.203817408868379069e-01 2.833367828519213205e-01 2.684908764033186457e-01 2.772821507358029236e-01 2.937510236349440973e-01 2.984877801501469863e-01 2.954427040526700909e-01 2.975921811185384680e-01 2.972386733035458639e-01 2.738795358090296839e-01 2.292750443662354698e-01 1.971466986689132672e-01 1.835005438657857924e-01 1.680764487254039485e-01 1.432301591999995960e-01 1.236356853484580631e-01 1.159651955178495758e-01 1.055352857185767185e-01 7.875545974682139627e-02 3.837293156451162396e-02 1.863968454199772980e-03 -1.443518131210818310e-02 -2.047818354051860607e-02 -3.112693351636858924e-02 -5.386392932817105073e-02 -7.694687132673615204e-02 -8.953145909256381152e-02 -9.378167906364141826e-02 -1.048184315575032971e-01 -1.357267832860780121e-01 -1.776956307081647146e-01 -2.151215026177907830e-01 -2.375177122057751111e-01
-9.250817568298022042e-01 -9.426272692367271278e-01 -9.660215573845687409e-01 -9.871691048104997979e-01 -9.984833215060847644e-01 -1.000849520944509186e+00 -9.926300663678002678e-01 -9.829026949123856882e-01 -9.788271038522846634e-01 -9.779860517437305445e-01 -9.809500560270559832e-01 -9.810719556903768623e-01 -9.734038260026882661e-01 -9.525270801685352673e-01 -9.182651253708411510e-01 -8.950902639973730146e-01 -8.882842062903903990e-01 -8.879136486020854369e-01 -8.770369990325027620e-01 -8.429399832135445747e-01 -8.068261319377042495e-01 -7.873947617172682989e-01 -7.905759825256796214e-01 -7.933281232653894843e-01 -7.780980313138752269e-01 -7.577614577807535445e-01 -7.405443829371798348e-01 -7.185007962035514506e-01 -6.743771693683793256e-01 -6.186159512166276020e-01 -5.571138758681177805e-01 -4.788809583750476273e-01 -3.904263841560147164e-01 -3.064770704960729786e-01 -2.450346532371714126e-01 -2.068393151377682648e-01 -1.749421916112926523e-01 -1.450777031353514823e-01 -1.130087952342635760e-01 -7.789568284829738454e-02 -4.122754079590720822e-02 -1.119694638989547977e-02 6.069480154987326286e-03 1.970937548482011581e-02 3.898487779175208168e-02 7.206307767997505165e-02 1.186103358498257349e-01 1.653052760797019960e-01 2.103057745693695246e-01 2.642133057727631962e-01 3.265830650667123081e-01 3.695831635914444413e-01 3.801227458000316362e-01 3.698325960111599198e-01 3.610625515698926979e-01 3.691044574055760696e-01 3.783050943234289032e-01 3.810582814919090677e-01 3.686659913154906598e-01 3.456098817292508341e-01 3.260788322052673438e-01 3.119604740741489524e-01 2.952956528746968345e-01 2.717259292705437868e-01 2.529064156572893296e-01 2.504743758787373875e-01 2.631892703648735510e-01 2.697245635114085549e-01 2.647083720831623910e-01 2.628788387622147948e-01 2.829292950974284238e-01 3.255236468273563499e-01 3.662374202935925749e-01 4.062907750190728473e-01 4.271815994487919155e-01 4.229001517265521537e-01 4.092832866670417791e-01 3.791708879535576893e-01 3.547723394126802710e-01 3.472811879949361247e-01 3.387822045787104996e-01 3.209485260435410159e-01 2.878094464976265754e-01 2.560431043976429399e-01 2.459255267791803923e-01 2.600660282963355718e-01 2.829839464334482635e-01 2.924888157287349744e-01 2.914180827683063857e-01 2.968178118929085119e-01 3.011362821119982769e-01 2.813063493832970718e-01 2.383122191367243736e-01 2.028751255591267344e-01 1.816781561351673013e-01 1.623358118804987260e-01 1.385603480123459019e-01 1.175642394908563149e-01 1.050059994507888395e-01 9.191888785996228661e-02 6.724274912560400386e-02 3.372562182899786765e-02 6.914281676833515869e-03 -4.755230942610934666e-03 -1.160891699131728037e-02 -2.120992665304335251e-02 -4.245099546994700324e-02 -6.945367012724402989e-02 -9.184260486321906003e-02 -1.110326681952659988e-01 -1.391676794915864268e-01 -1.812539566021252047e-01 -2.282742852583491133e-01 -2.648668583173699465e-01 -2.814641730013728305e-01
-9.540936409990891098e-01 -9.636860949590242420e-01 -9.822614337989495903e-01 -1.004107067598614123e+00 -1.013981831343525819e+00 -1.010284120683229148e+00 -9.900033704703976589e-01 -9.723428258769828414e-01 -9.708309888062698345e-01 -9.737355386478797614e-01 -9.784973027944006141e-01 -9.826316418739644565e-01 -9.834879721801109698e-01 -9.705672828491664905e-01 -9.347594892858247517e-01 -9.018641952470196621e-01 -8.889241025529628359e-01 -8.841252575739046993e-01 -8.745825471893940994e-01 -8.498102033378005515e-01 -8.217457677925561477e-01 -8.055098813960273052e-01 -8.092696714622327203e-01 -8.162425196221325674e-01 -8.083367811249171364e-01 -7.933046184656745714e-01 -7.681624806151650109e-01 -7.281015807159625375e-01 -6.729345422066567162e-01 -6.133150782120896372e-01 -5.580464375647838926e-01 -4.889198509543692950e-01 -4.030495321357687732e-01 -3.191254849737898969e-01 -2.560112642281701101e-01 -2.159116729973525051e-01 -1.828466353902690744e-01 -1.459725519347989386e-01 -1.011627752323631946e-01 -6.059056107934751578e-02 -2.778082634989635299e-02 -2.592878826943276725e-03 9.994564205913859800e-03 1.820804608801035451e-02 3.077124985163102316e-02 5.446346547350349593e-02 9.807244310358080586e-02 1.532849085075892737e-01 2.071090270515215936e-01 2.627674520488305077e-01 3.190645664308366936e-01 3.617084577573690951e-01 3.831291663641438472e-01 3.813752172246456240e-01 3.656761317900926178e-01 3.583391512738756668e-01 3.600783527864790945e-01 3.564104967336582663e-01 3.429564339208134860e-01 3.256561208205479563e-01 3.112364885174650486e-01 3.015984654382443675e-01 2.858248346363367332e-01 2.611053051532839508e-01 2.433939134653446690e-01 2.381701821951782150e-01 2.456608013949089786e-01 2.511856835861398518e-01 2.478828256434794652e-01 2.477485168637381385e-01 2.669407035438852160e-01 3.060448557826529470e-01 3.440474063353651801e-01 3.752290993765896587e-01 3.833885537995415094e-01 3.734455604858046285e-01 3.614489569737218688e-01 3.356240689357635198e-01 3.145092418825997105e-01 3.081671802629785684e-01 3.018181256136966972e-01 2.899212529973016483e-01 2.670456856092798259e-01 2.448516932303561877e-01 2.404298406809324551e-01 2.507700189476957942e-01 2.673415168689961541e-01 2.795882608133113401e-01 2.861470384472256101e-01 2.908704147212126667e-01 2.869386205306345694e-01 2.658457399928790821e-01 2.313296547113881940e-01 1.953901453346410799e-01 1.647465168043322215e-01 1.437684996913650148e-01 1.294918716169945472e-01 1.173131963979917453e-01 1.025723563904226282e-01 8.150310535964862269e-02 5.503443855625400616e-02 2.881074255713752391e-02 1.523962318491337183e-02 8.865184601174327245e-03 -1.984125837997261204e-03 -1.424156244293188663e-02 -3.489543170600310079e-02 -6.413098140828450699e-02 -9.559884397128137756e-02 -1.313025632420749544e-01 -1.797550716477293586e-01 -2.353747694345174890e-01 -2.883787664501987758e-01 -3.240728240682035910e-01 -3.344254991540293598e-01
-9.857128130513870268e-01 -9.829798794420020469e-01 -9.857962545424533429e-01 -1.000885124001402726e+00 -1.010775348533473839e+00 -1.007855564242952306e+00 -9.886660876226659456e-01 -9.746330829602586343e-01 -9.800270169675395771e-01 -9.844553361037068351e-01 -9.784466387619865646e-01 -9.738609850320053551e-01 -9.785144799958730433e-01 -9.764011219016089926e-01 -9.522069455571987584e-01 -9.205730645045721028e-01 -9.029963752804952559e-01 -8.913940894392770042e-01 -8.789216864541948837e-01 -8.620494368135620533e-01 -8.437856875881275531e-01 -8.276817741704944886e-01 -8.211102155729264052e-01 -8.232203717480899297e-01 -8.207905906415806641e-01 -8.147761555756224405e-01 -7.916227923379318687e-01 -7.420327705878873026e-01 -6.804885456092575335e-01 -6.183347255600909476e-01 -5.649466278300077082e-01 -5.011143200211587434e-01 -4.181390244186641847e-01 -3.373873095780561826e-01 -2.788102921565160930e-01 -2.412614568539661053e-01 -2.072537973041437831e-01 -1.653260217616709382e-01 -1.143811600827869396e-01 -7.437249690839715932e-02 -4.695100345413035642e-02 -1.972794568120020756e-02 6.620971701296467747e-03 2.462038798870206172e-02 3.430116617935893147e-02 4.735338514135052634e-02 8.401255635044094228e-02 1.460494642597557347e-01 2.094859197633345549e-01 2.639435423429456473e-01 3.058203741653001684e-01 3.423912413740098359e-01 3.752915839725309843e-01 3.870738516486239567e-01 3.719419263422982791e-01 3.524661888004023691e-01 3.454670196390672299e-01 3.304139931959501619e-01 3.081428112573799671e-01 2.921006847645874482e-01 2.827339021191312973e-01 2.820937558919602850e-01 2.756425595915447113e-01 2.555187221618495097e-01 2.401234305781514422e-01 2.316258473779128080e-01 2.329458231146388503e-01 2.380838861308777754e-01 2.379932132599665295e-01 2.379169670433788908e-01 2.505956889987388525e-01 2.811234347133965694e-01 3.145967130474912055e-01 3.396035544773150505e-01 3.431445809084033294e-01 3.341831435138546413e-01 3.261020622275013214e-01 3.049144194263772034e-01 2.846533194249144527e-01 2.776259928662611065e-01 2.740754603560261460e-01 2.676660682973395766e-01 2.532464239764159464e-01 2.398901821706690141e-01 2.412992212554656291e-01 2.443588922609537806e-01 2.492932541521120093e-01 2.615586360598539661e-01 2.750590115434478067e-01 2.735624973765459766e-01 2.516769467938165250e-01 2.244043149640525536e-01 2.003264202332024624e-01 1.683548804353308670e-01 1.338979026226717606e-01 1.154966244489326610e-01 1.133562917828659922e-01 1.150230123150171174e-01 1.028195683161432783e-01 7.419549370182176862e-02 4.391032049666716841e-02 1.918089042026202909e-02 1.028252725078846949e-02 4.558693370257893736e-03 -1.052102647132076296e-02 -2.746373082697551107e-02 -5.004238682831078228e-02 -8.102305179600878537e-02 -1.187298125902313123e-01 -1.615554990480106423e-01 -2.164908905154320773e-01 -2.788316155977194621e-01 -3.392032249945938771e-01 -3.843185610719643264e-01 -4.051543517727031474e-01
-1.007279061897749406e+00 -9.984955386172494896e-01 -9.919795403340282425e-01 -1.001437895508426879e+00 -1.010789573146213538e+00 -1.010038327924591695e+00 -9.957723446223213370e-01 -9.876186635719517160e-01 -9.981272696513998621e-01 -1.003785952919666435e+00 -9.908652564551989617e-01 -9.782463610415368382e-01 -9.798583006534584694e-01 -9.803464394882945854e-01 -9.654963674729187817e-01 -9.403377682902405166e-01 -9.231217444153128060e-01 -9.103245917129246800e-01 -8.989502719669629771e-01 -8.875621429312718913e-01 -8.744761701287564470e-01 -8.533629678211577252e-01 -8.284468527057546883e-01 -8.146611478079811564e-01 -8.073915114738260401e-01 -8.024648777361617080e-01 -7.844747756622013624e-01 -7.384431464760340402e-01 -6.808239387459864567e-01 -6.228331091629957239e-01 -5.709224853637917541e-01 -5.088101838789970133e-01 -4.287618169285230540e-01 -3.517897036543166100e-01 -2.975941471987958997e-01 -2.625796429724585601e-01 -2.282790251986377139e-01 -1.881969706170179002e-01 -1.449992628696045449e-01 -1.128191234443674529e-01 -8.796333047627888369e-02 -5.550606723895498695e-02 -1.343141509416407794e-02 1.781125522868301850e-02 3.047332342522882445e-02 3.911451004453381924e-02 6.757534468569242891e-02 1.260879759082095264e-01 1.898148374914983560e-01 2.410779712500430161e-01 2.752753519091334367e-01 3.086027900668340540e-01 3.462470367363079671e-01 3.684937596923948955e-01 3.648828819093120068e-01 3.486830112192886300e-01 3.387770254988866636e-01 3.176224506661243230e-01 2.885991733870207909e-01 2.701221109769222362e-01 2.619726993916269842e-01 2.646967418052054155e-01 2.614733879794157168e-01 2.437394685126890448e-01 2.309485132706742827e-01 2.251658741828167498e-01 2.305397600234941613e-01 2.396414828475542658e-01 2.403033966556162859e-01 2.348813550519087967e-01 2.356656885721782058e-01 2.552572265324485890e-01 2.831587204488074105e-01 3.053922510098263099e-01 3.102623125245912994e-01 3.036088922510304933e-01 2.969059650295799990e-01 2.764604324562050519e-01 2.540750325877996763e-01 2.462668849750710987e-01 2.459868285697590362e-01 2.427681707362644437e-01 2.314730324270224682e-01 2.229286543034580959e-01 2.288290229628292816e-01 2.306094767695380798e-01 2.319427261589618039e-01 2.422061324762554979e-01 2.539042490250325024e-01 2.450811463436566862e-01 2.119519365699425451e-01 1.802517903499758767e-01 1.609584911967958387e-01 1.338925629945962037e-01 1.022969258326047876e-01 8.719941521715889043e-02 8.981681328649648854e-02 9.675427090740605640e-02 8.551821761906383546e-02 5.353965013712157911e-02 2.096463825942841697e-02 -6.746454830892715561e-03 -1.941998870981908112e-02 -2.692285492339932182e-02 -4.171495647854190497e-02 -5.842829852969821935e-02 -8.009468620416958229e-02 -1.106734551531799449e-01 -1.507624936417676642e-01 -1.920262116939968344e-01 -2.419180117800265317e-01 -3.053022801120875984e-01 -3.737782326466371763e-01 -4.356787707558578693e-01 -4.790851395002596047e-01
-1.023831418557152206e+00 -1.015280918413354661e+00 -1.008516505140592878e+00 -1.017113738122625843e+00 -1.026904087473411664e+00 -1.028464155521327417e+00 -1.018241208519002461e+00 -1.014679380936629904e+00 -1.028689373765202975e+00 -1.036043915660722403e+00 -1.020049771127890859e+00 -1.000212218413772725e+00 -9.935078348268808757e-01 -9.885767392595460334e-01 -9.753129900152522902e-01 -9.538796148901910188e-01 -9.375485021438746402e-01 -9.258204660926134810e-01 -9.190098877152151902e-01 -9.134567280476235673e-01 -9.026801536580106866e-01 -8.748350274120837433e-01 -8.305909311163899300e-01 -7.969111554518089058e-01 -7.790534051710614749e-01 -7.694889449445260210e-01 -7.559016739017987430e-01 -7.190793070442752510e-01 -6.707751596220301593e-01 -6.211686176499785494e-01 -5.734586977031854715e-01 -5.151321411113349846e-01 -4.405666251345322082e-01 -3.683476315858610906e-01 -3.163835122965261148e-01 -2.824624074730562873e-01 -2.498953395590968740e-01 -2.164209860180092704e-01 -1.856996648197449529e-01 -1.606480574886924029e-01 -1.342314910834805086e-01 -9.593040092701002330e-02 -4.354141635834277851e-02 -2.795549990657665313e-03 1.541728792843473708e-02 2.366697708518396628e-02 4.322066681704857943e-02 9.145127684671459922e-02 1.496318382778926981e-01 1.978076538572620113e-01 2.321872930746044228e-01 2.675496695980602024e-01 3.071364879241044732e-01 3.355695424146499239e-01 3.436246768293161891e-01 3.359687249344717186e-01 3.274976714672648836e-01 3.063306874330695151e-01 2.762856242623891734e-01 2.567106276507136742e-01 2.492582571894954024e-01 2.523448247391000820e-01 2.474644061492220215e-01 2.293556268501498741e-01 2.185606538208166860e-01 2.180890520758491657e-01 2.331393176550325685e-01 2.494529841735436126e-01 2.505976518921241847e-01 2.384370946630726407e-01 2.257320156228641572e-01 2.336014211697161891e-01 2.555125376026203821e-01 2.756402634648063010e-01 2.824867361443674785e-01 2.772999899113220423e-01 2.707165452816046036e-01 2.497433492506490604e-01 2.238645483456100371e-01 2.135615191456158579e-01 2.144175674595059922e-01 2.121047146130798644e-01 2.022066525696301909e-01 1.967975839694603435e-01 2.047226935760673439e-01 2.078082799150356985e-01 2.106829452152350346e-01 2.188749292697363680e-01 2.248396523592306184e-01 2.113248641932119753e-01 1.749224041183219114e-01 1.413509223044212282e-01 1.229459856508684779e-01 9.965290832264367404e-02 7.350495868262238441e-02 6.209493546962606414e-02 6.527055705615809889e-02 7.118631320748078362e-02 5.705753008516765978e-02 2.140689677623496684e-02 -1.424005946174627599e-02 -4.578382847816315354e-02 -6.233277637923685666e-02 -7.023020689948109019e-02 -8.233599983949480006e-02 -9.651940694670781140e-02 -1.159333051152194871e-01 -1.443754078951073883e-01 -1.837328831977191879e-01 -2.216314938702820536e-01 -2.651026574767152422e-01 -3.274314142285100759e-01 -4.017162730415529404e-01 -4.780199080937791445e-01 -5.422165315660225637e-01
-1.052131878640502949e+00 -1.049756067145275695e+00 -1.046967908932550095e+00 -1.052831990764907522e+00 -1.060253056168881436e+00 -1.062298839494008496e+00 -1.057244663437517884e+00 -1.061529293320392586e+00 -1.079759535405058646e+00 -1.088127533552153192e+00 -1.065261217651484404e+00 -1.031314716773320539e+00 -1.010653435919077747e+00 -9.963546636650693067e-01 -9.826390372857306543e-01 -9.623471961975900157e-01 -9.420521809079298592e-01 -9.256063669443077568e-01 -9.214694518680127677e-01 -9.253355410252407376e-01 -9.192840039896774673e-01 -8.900209583361153864e-01 -8.333898138185321658e-01 -7.804320385398078042e-01 -7.489957054316237484e-01 -7.320855969482055192e-01 -7.230513644523982597e-01 -6.976799056029372448e-01 -6.586336870795571619e-01 -6.140428016846987136e-01 -5.686589949686120526e-01 -5.200322231868981238e-01 -4.600273144491719979e-01 -3.980202981507271476e-01 -3.458450876184132050e-01 -3.102584236345454216e-01 -2.841392229453673091e-01 -2.631016946044434923e-01 -2.419252392203951330e-01 -2.117142604024972452e-01 -1.737024793578986759e-01 -1.254823188172668191e-01 -6.848287888476140006e-02 -2.477030484669190055e-02 2.979553206227659426e-04 1.156806695227364200e-02 2.128889134223412721e-02 5.326827759602955487e-02 1.017369324188703017e-01 1.459098288074694161e-01 1.855886572184671790e-01 2.294437978302708570e-01 2.728395185944152423e-01 3.012521872721026228e-01 3.080976237427427988e-01 3.035659380670838181e-01 3.009808165823733561e-01 2.860993951446976213e-01 2.597293651056589159e-01 2.411271176271145844e-01 2.364920847584180141e-01 2.432950973092722624e-01 2.412843030428930835e-01 2.250922953468164345e-01 2.153204596052275543e-01 2.159188403203004258e-01 2.360383967778990344e-01 2.598850452991701698e-01 2.653264182059086318e-01 2.502647720622929173e-01 2.246067105462090929e-01 2.191593089737555455e-01 2.351067101917979629e-01 2.531851996064205523e-01 2.617394986572387228e-01 2.579422077292877202e-01 2.516985190242653769e-01 2.333856015646871840e-01 2.047516794471102852e-01 1.848634063212497014e-01 1.772451039632925718e-01 1.705959646026584953e-01 1.662990455094542352e-01 1.691018266052408681e-01 1.771092095632594843e-01 1.793801208287789661e-01 1.826820363063944574e-01 1.891938249934061456e-01 1.911848125716117397e-01 1.798965174974345715e-01 1.461225685599882029e-01 1.079848035530455441e-01 8.357316473729431427e-02 5.949935152073353162e-02 4.216801671976273813e-02 3.994757697627355358e-02 4.416512552367969635e-02 4.864207889002678670e-02 3.051596929152540841e-02 -1.064807296632015732e-02 -5.145007144753650785e-02 -8.481844203560706674e-02 -9.941666632862497521e-02 -1.043285938735103308e-01 -1.143039808282767106e-01 -1.302463062457802911e-01 -1.540322782735506768e-01 -1.833516025105467184e-01 -2.213877851772618754e-01 -2.625273523495843531e-01 -3.061511257087262683e-01 -3.634863879363004480e-01 -4.336490198981282629e-01 -5.130892120088683672e-01 -5.887652927252634560e-01
-1.079156399204153738e+00 -1.084558978704334820e+00 -1.086886064132719154e+00 -1.089433592005986773e+00 -1.093185852005515102e+00 -1.094180211374711442e+00 -1.093234802007672757e+00 -1.104933543212381908e+00 -1.126655529087139174e+00 -1.138447534745251621e+00 -1.117722276367917766e+00 -1.078022895328131670e+00 -1.046260680205457039e+00 -1.022558886886672846e+00 -1.004787112162394136e+00 -9.812084315842607429e-01 -9.541828988282318180e-01 -9.285009044499431541e-01 -9.193482065701684691e-01 -9.266018263811813815e-01 -9.229935727354112718e-01 -8.979482113138429478e-01 -8.454732653486621841e-01 -7.868710874981623693e-01 -7.452267340421121489e-01 -7.185652420125687723e-01 -7.050083588008912994e-01 -6.823100799789012516e-01 -6.479675926820135379e-01 -6.054359620950179321e-01 -5.633223387933041781e-01 -5.278283528942704361e-01 -4.848168781180681730e-01 -4.343639555047281720e-01 -3.818856997618826910e-01 -3.448424677237340030e-01 -3.272326883259406016e-01 -3.170881773212722021e-01 -2.958471588030546773e-01 -2.504530712625452904e-01 -1.974087830538923116e-01 -1.425674834109161571e-01 -9.325810149120662695e-02 -5.763980375071994094e-02 -2.875638105448931336e-02 -9.411006708734782206e-03 4.018894158327189318e-03 2.961089593947065224e-02 6.988419252794358938e-02 1.089223027198731181e-01 1.514324622721384406e-01 2.029456059902203513e-01 2.513685860882966527e-01 2.775304687891346767e-01 2.767153243830708931e-01 2.719164582385784068e-01 2.771241093839019176e-01 2.694883387115331042e-01 2.452444567445760670e-01 2.268442465024090304e-01 2.266426960795510093e-01 2.405455888642884510e-01 2.466771200316138501e-01 2.351307175523043025e-01 2.250679431520356266e-01 2.194275319052629292e-01 2.315783325944601179e-01 2.542319394773670527e-01 2.629170520111428488e-01 2.502214145232571907e-01 2.220625254425884765e-01 2.104380596406405790e-01 2.218427013745431220e-01 2.340108570114470543e-01 2.351220412354948497e-01 2.261756085527289184e-01 2.188847519585919443e-01 2.093939847425243250e-01 1.906239299441145341e-01 1.671401867484319237e-01 1.482970578149331309e-01 1.367160372578100636e-01 1.414368355817568479e-01 1.545906976588953263e-01 1.613242679112500688e-01 1.577275537158754071e-01 1.531626248851521155e-01 1.541944032542293119e-01 1.543353269762385571e-01 1.491147343178295392e-01 1.213609157045034137e-01 7.935836648950020389e-02 4.767320148064791568e-02 2.123689539067410634e-02 1.265483564498334768e-02 2.034855404669400764e-02 2.555191224536631708e-02 2.856349091235641305e-02 6.522325827871816931e-03 -4.025699940251852710e-02 -8.669278817658415681e-02 -1.218901161435794189e-01 -1.340460793614032808e-01 -1.361884225328909848e-01 -1.448144227369478343e-01 -1.592958862908698259e-01 -1.812156427088119359e-01 -2.085454616018876106e-01 -2.466274481035086175e-01 -3.013123597251861074e-01 -3.603557945641032711e-01 -4.183982217585214269e-01 -4.805599089047525863e-01 -5.550885996088165131e-01 -6.319114805200390927e-01
